0.34011728 0.40976486 32.62084198 177 177 177
0.38885167 0.45018399 32.65333176 176 176 176
0.43811676 0.48822948 32.68654251 191 191 191
0.48922905 0.52472258 32.72016907 203 203 203
0.37357587 0.38604739 32.67848587 183 183 183
0.54177618 0.56050491 32.75264740 199 199 199
0.42349955 0.42373267 32.71100998 189 189 189
0.59321362 0.59030956 32.79192352 201 201 201
0.47374094 0.46033147 32.74478912 215 215 215
0.64578891 0.61934400 32.82950211 188 188 188
0.52391422 0.49746096 32.77901077 211 211 211
0.69884300 0.64545894 32.87081528 198 198 198
0.57601166 0.52644902 32.81721878 213 213 213
0.75252950 0.67116046 32.91034698 197 197 197
0.62781960 0.55631876 32.85567474 212 212 212
0.37123424 0.31794941 32.69692612 187 187 187
0.80748892 0.69426084 32.95111847 204 204 204
0.67986077 0.58219773 32.89580536 211 211 211
0.42148516 0.35576475 32.72980499 195 195 195
0.47178182 0.39225802 32.76334000 217 217 217
0.73183137 0.60880041 32.93599319 211 211 211
0.52178824 0.42920655 32.79678726 210 210 210
0.85859430 0.71065319 32.99873734 198 198 198
0.78401637 0.63310492 32.97722626 207 207 207
0.57408118 0.45822543 32.83583450 216 216 216
0.90800345 0.72294199 33.04770660 192 192 192
0.62647051 0.48822844 32.87428284 213 213 213
0.83676201 0.64747518 33.02194214 210 210 210
0.96158832 0.73739922 33.09459305 191 191 191
0.67845649 0.51413995 32.91434097 209 209 209
0.73089767 0.54087788 32.95492935 210 210 210
0.88974470 0.65807927 33.06882095 203 203 203
1.01127982 0.74609578 33.14454651 191 191 191
0.78370643 0.56528980 32.99650955 208 208 208
0.94175929 0.67241508 33.11447906 213 213 213
1.06448305 0.75754273 33.18967438 191 191 191
0.51382464 0.36050314 32.81081009 215 215 215
0.46322203 0.32341146 32.77661133 213 213 213
0.41287604 0.28613427 32.74411392 185 185 185
0.83653021 0.57973975 33.04166031 204 204 204
0.56600642 0.38933861 32.84923553 216 216 216
0.99374366 0.67949891 33.16186142 203 203 203
1.11296952 0.76133269 33.24142075 191 191 191
0.61769152 0.41930413 32.88680649 213 213 213
0.67012632 0.44515470 32.92657852 206 206 206
0.88898724 0.58996642 33.08768082 213 213 213
1.04581845 0.69202095 33.20814133 199 199 199
1.16356730 0.76457828 33.29249573 186 186 186
0.72234225 0.47172490 32.96722794 217 217 217
0.77460444 0.49625292 33.00805283 207 207 207
0.94194543 0.60449332 33.13389969 209 209 209
1.09727573 0.69425994 33.25701904 201 201 201
1.21437001 0.76600260 33.34431076 178 178 178
0.82711136 0.51054329 33.05293655 219 219 219
0.99365878 0.61162704 33.18137741 193 193 193
1.14847660 0.69702828 33.30625153 212 212 212
1.26397026 0.76536405 33.39466095 176 176 176
1.04551005 0.62404674 33.22780991 209 209 209
0.87935448 0.52106655 33.09921265 204 204 204
0.55042189 0.32086608 32.85655212 213 213 213
0.60327232 0.35064036 32.89505768 213 213 213
1.19978476 0.69782770 33.35604477 204 204 204
1.31574428 0.76417112 33.44628525 179 179 179
0.65557718 0.37659281 32.93463516 212 212 212
0.93190205 0.53557193 33.14509583 213 213 213
0.50020564 0.28460854 32.82259750 213 213 213
0.70758748 0.40312812 32.97428131 216 216 216
1.09817767 0.62671709 33.27790070 200 200 200
0.75970256 0.42756796 33.01503754 210 210 210
0.44999000 0.24728663 32.78978729 202 202 202
1.25042033 0.69719458 33.40677643 182 182 182
1.36533093 0.76065630 33.49708939 183 183 183
0.98440790 0.54256934 33.19259262 215 215 215
1.14911783 0.62962484 33.32701874 190 190 190
0.81262445 0.44188222 33.06037140 212 212 212
1.03642654 0.55490434 33.23892593 209 209 209
1.30111301 0.69582415 33.45737839 198 198 198
1.41488254 0.75587523 33.54718399 180 180 180
1.19988716 0.63034773 33.37656784 198 198 198
0.86565125 0.45224333 33.10697937 207 207 207
0.40248173 0.20356178 32.76142120 210 210 210
1.08755493 0.55768943 33.28819275 199 199 199
1.35106230 0.69233900 33.50869370 181 181 181
1.46537066 0.75073618 33.59644318 180 180 180
0.91796404 0.46679112 33.15219879 216 216 216
1.24994135 0.62933505 33.42639542 191 191 191
1.13883519 0.56047857 33.33728790 210 210 210
1.40043056 0.68789804 33.55958939 188 188 188
0.96985310 0.47392666 33.20009232 200 200 200
0.69064718 0.33494559 32.98030853 213 213 213
0.63789898 0.30855218 32.94044113 215 215 215
1.51200473 0.73718363 33.65043259 178 178 178
0.74311054 0.35927102 33.02099228 213 213 213
1.30167401 0.62844336 33.47840881 196 196 196
0.58591044 0.28000277 32.90184402 215 215 215
1.02233732 0.48611337 33.24666977 215 215 215
1.18956935 0.56117755 33.38716507 201 201 201
0.79569930 0.37338242 33.06591415 211 211 211
1.44952214 0.68338543 33.61087036 183 183 183
1.55777454 0.72158074 33.70411682 174 174 174
1.35235941 0.62545449 33.53104401 186 186 186
0.53542811 0.24388053 32.86810684 217 217 217
1.07368422 0.48893282 33.29536057 216 216 216
0.84846795 0.38395554 33.11255264 216 216 216
1.24002004 0.56031978 33.43800735 197 197 197
1.49616766 0.66938710 33.66348648 178 178 178
0.90101254 0.39855817 33.15744400 202 202 202
1.41286814 0.62607074 33.59212875 181 181 181
1.60230112 0.70504725 33.75624084 174 174 174
1.12487948 0.49176702 33.34504318 201 201 201
1.29076123 0.55922359 33.48836899 195 195 195
0.48533803 0.20639083 32.83514023 214 214 214
0.95267951 0.40551138 33.20508194 214 214 214
1.54238141 0.65371060 33.71596909 180 180 180
1.45965183 0.61203718 33.64358139 191 191 191
1.17562664 0.49226889 33.39505005 203 203 203
1.64986145 0.68839443 33.80888367 176 176 176
1.00550747 0.41780952 33.25166321 213 213 213
1.33979702 0.55630291 33.53896332 203 203 203
0.72364342 0.29150698 33.02543259 213 213 213
1.39019418 0.55931956 33.58874893 199 199 199
1.58776224 0.63700604 33.76869583 180 180 180
1.22654521 0.49135622 33.44546509 200 200 200
1.05665410 0.42058983 33.30041122 210 210 210
0.67152762 0.26547742 32.98526764 214 214 214
1.50569403 0.59703451 33.69556427 186 186 186
0.77695030 0.30555293 33.07027054 216 216 216
1.69568825 0.66865653 33.86120605 174 174 174
0.61931771 0.23731592 32.94692993 217 217 217
1.27682030 0.49044898 33.49614716 193 193 193
1.10796440 0.42317134 33.35006714 201 201 201
0.82967240 0.31603363 33.11612701 207 207 207
1.63355339 0.62093520 33.82183838 173 173 173
1.43655384 0.54523605 33.64062500 191 191 191
0.43784994 0.16256367 32.80681229 210 210 210
0.88186038 0.33074099 33.16144180 208 208 208
1.55080235 0.58073187 33.74742126 178 178 178
1.74388206 0.64814806 33.91393280 176 176 176
1.32610488 0.48753056 33.54730988 189 189 189
1.15902436 0.42385682 33.40034866 203 203 203
0.97763395 0.35317910 33.24569321 211 211 211
1.67835784 0.60140175 33.87429810 188 188 188
1.48223305 0.53031200 33.69226456 185 185 185
0.56897718 0.20124911 32.91321564 225 225 225
1.37758517 0.49047247 33.59804153 191 191 191
1.59656143 0.56465721 33.79982376 173 173 173
1.20929623 0.42315203 33.45026779 198 198 198
1.78650010 0.62386888 33.96515656 181 181 181
1.02893031 0.35603350 33.29433060 214 214 214
0.92922199 0.31456405 33.21166992 212 212 212
1.72318101 0.58200407 33.92803574 176 176 176
1.52739215 0.51417822 33.74450302 185 185 185
1.25955057 0.42214260 33.50066376 211 211 211
1.42536318 0.47640932 33.65111923 190 190 190
1.07966411 0.35871270 33.34325790 206 206 206
1.64068806 0.54573923 33.85219193 185 185 185
1.82253528 0.59215087 34.01758194 174 174 174
0.74945325 0.24054918 33.06675339 212 212 212
1.30899918 0.41905040 33.55178070 201 201 201
0.51900333 0.16382509 32.88040543 223 223 223
1.13065755 0.35962340 33.39299774 205 205 205
1.57279027 0.49801487 33.79690170 187 187 187
1.76605034 0.55825716 33.98108673 180 180 180
0.80211729 0.25119185 33.11264420 207 207 207
1.47240114 0.46161947 33.70480347 187 187 187
1.68464541 0.52734607 33.90480042 186 186 186
0.85532665 0.26530519 33.15833664 213 213 213
1.36007452 0.42220667 33.60227966 195 195 195
0.69722408 0.21451557 33.02708817 218 218 218
1.18118536 0.35886714 33.44308853 206 206 206
1.85578740 0.55627239 34.06897354 180 180 180
0.99520922 0.29528946 33.28198242 207 207 207
1.61772621 0.47908375 33.85070801 183 183 183
1.51902807 0.44543824 33.75846863 186 186 186
1.72692740 0.50452787 33.95746613 178 178 178
1.80355322 0.52585435 34.03257751 177 177 177
0.64526552 0.18652619 32.98849869 223 223 223
1.23125601 0.35767317 33.49361801 210 210 210
1.40678144 0.40842366 33.65472412 196 196 196
1.04594040 0.29776311 33.33099747 200 200 200
1.66186154 0.46044073 33.90322876 182 182 182
1.28089309 0.35454348 33.54475403 200 200 200
0.90239501 0.24921854 33.20847702 214 214 214
1.56735170 0.42994434 33.81444931 183 183 183
1.88610041 0.51695770 34.11912918 165 165 165
1.09712267 0.29885480 33.38040924 206 206 206
1.45338607 0.39363456 33.70747757 193 193 193
1.33172536 0.35790899 33.59513474 195 195 195
1.76467264 0.47186014 34.00888824 180 180 180
1.83528984 0.48521695 34.08071899 172 172 172
1.14740694 0.29815078 33.43093491 210 210 210
0.47151142 0.12006647 32.85195923 211 211 211
0.95213026 0.24461664 33.25824738 205 205 205
1.70463860 0.43762505 33.95604324 183 183 183
1.61163747 0.41063941 33.86677551 188 188 188
0.59512401 0.15023302 32.95469666 228 228 228
1.49918997 0.37758797 33.76076126 184 184 184
1.37821722 0.34444290 33.64682007 197 197 197
1.91813171 0.47754261 34.16891098 159 159 159
1.19736934 0.29688331 33.48073959 210 210 210
0.77286100 0.18714312 33.10695648 218 218 218
0.82802516 0.20034404 33.15462112 213 213 213
1.79665422 0.43076149 34.05720901 187 187 187
1.86843705 0.44557247 34.12985611 182 182 182
0.41294959 0.09660023 32.80756760 216 216 216
1.65602624 0.39230782 33.92078018 173 173 173
1.24667823 0.29416183 33.53140259 210 210 210
1.54500043 0.36307296 33.81365967 188 188 188
1.01188040 0.23708610 33.31907654 201 201 201
1.74162197 0.40505630 34.00747299 176 176 176
1.42407596 0.32986772 33.69982910 178 178 178
1.29831576 0.29701060 33.58203506 205 205 205
0.72032994 0.16142626 33.06750107 218 218 218
1.06271303 0.23856455 33.36806870 214 214 214
1.94899285 0.43649545 34.21728134 170 170 170
1.58922946 0.34338796 33.86742020 181 181 181
1.69569552 0.36344373 33.97237015 183 183 183
1.82924569 0.39145920 34.10644531 183 183 183
1.46934903 0.31433886 33.75173569 195 195 195
1.11326766 0.23758508 33.41843033 211 211 211
1.89915776 0.40340769 34.17859650 177 177 177
1.34430039 0.28361967 33.63383865 206 206 206
0.87479895 0.18419766 33.20486450 203 203 203
0.54500836 0.11291778 32.92185974 228 228 228
1.77313435 0.36395299 34.05601883 178 178 178
1.16341949 0.23589131 33.46884155 213 213 213
1.98405147 0.39809921 34.26493835 171 171 171
0.66878957 0.13303103 33.02857590 225 225 225
1.63325870 0.32543483 33.92088318 176 176 176
1.51408172 0.29959974 33.80419540 187 187 187
0.92484438 0.17954236 33.25434113 213 213 213
1.39015424 0.26931098 33.68635941 196 196 196
1.21294355 0.23343444 33.51935196 203 203 203
1.93214452 0.36605492 34.22897720 173 173 173
1.85933626 0.34945285 34.15472412 172 172 172
1.26360917 0.23671311 33.56891632 213 213 213
1.72731221 0.32260731 34.02173233 187 187 187
0.97536612 0.17863879 33.30399323 210 210 210
1.55839264 0.28071931 33.85689926 191 191 191
1.80583894 0.32476056 34.10576630 187 187 187
1.67291081 0.29665852 33.97270584 188 188 188
1.43568206 0.25353283 33.73851395 191 191 191
2.00744557 0.34967509 34.31077194 170 170 170
1.02798843 0.17842476 33.35493088 211 211 211
0.79863536 0.13637829 33.14910889 210 210 210
1.30965602 0.22357287 33.62073517 204 204 204
1.89301741 0.31238812 34.20512390 183 183 183
1.07792711 0.17784563 33.40502167 204 204 204
1.60261250 0.26267880 33.91044998 183 183 183
1.95638609 0.31709963 34.27386093 181 181 181
1.48049843 0.23892741 33.79096985 199 199 199
1.75911021 0.28327435 34.07089996 185 185 185
0.61833978 0.09684985 32.99481583 228 228 228
1.12830961 0.17603311 33.45507050 212 212 212
1.35601878 0.20923530 33.67231369 208 208 208
1.83585560 0.28258377 34.15462112 182 182 182
1.70387805 0.25596023 34.02172089 184 184 184
0.74645656 0.11055767 33.10912323 219 219 219
1.17809021 0.17357266 33.50557327 206 206 206
2.02676916 0.29701948 34.35415649 165 165 165
1.52432346 0.22011885 33.84427261 182 182 182
1.22974455 0.17596242 33.55665588 212 212 212
1.64163268 0.23385297 33.96241379 185 185 185
0.84559000 0.12014297 33.20001602 215 215 215
0.49739587 0.06915161 32.89347076 222 222 222
1.40063643 0.19358921 33.72489548 204 204 204
1.91630590 0.26294693 34.24966812 178 178 178
1.78943050 0.24143450 34.11909866 173 173 173
1.97641635 0.26394019 34.31640244 176 176 176
1.86678350 0.24221291 34.20393753 183 183 183
1.56871259 0.20208338 33.89672089 188 188 188
0.89574862 0.11543116 33.24946594 211 211 211
1.27614999 0.16283892 33.60808182 213 213 213
1.73711026 0.21629517 34.07183838 180 180 180
1.44618976 0.17862844 33.77734375 189 189 189
0.99137765 0.11992009 33.34033966 206 206 206
0.69442755 0.08243787 33.07045746 223 223 223
2.04104829 0.24002045 34.39525223 161 161 161
1.67256570 0.19332899 34.01141357 173 173 173
0.44362617 0.05083049 32.85157394 216 216 216
1.04191208 0.11880285 33.39047241 213 213 213
1.32204688 0.14853835 33.66029739 203 203 203
1.82058239 0.20150848 34.16844177 176 176 176
1.93649518 0.21018220 34.29247665 183 183 183
1.60721588 0.17370243 33.94867325 188 188 188
1.49002337 0.15982613 33.83027649 189 189 189
1.09201384 0.11728214 33.44035721 213 213 213
0.56818789 0.05964582 32.96187973 227 227 227
1.99211502 0.20712343 34.35568619 180 180 180
1.14168286 0.11499536 33.49066162 206 206 206
1.88651609 0.18837920 34.24581909 180 180 180
0.93980134 0.09360051 33.30001450 212 212 212
1.76766968 0.17429304 34.12143326 181 181 181
1.36720490 0.13257268 33.71220016 198 198 198
1.19471955 0.11593280 33.54330826 203 203 203
1.53356659 0.14212507 33.88285446 178 178 178
1.70497751 0.15436362 34.06082916 187 187 187
2.05458522 0.18184385 34.43443680 153 153 153
0.80135089 0.07084315 33.17564774 213 213 213
1.41267753 0.11769316 33.76543427 199 199 199
1.24146616 0.10264267 33.59572601 207 207 207
1.63837016 0.13297851 33.99756622 183 183 183
1.84012246 0.14793271 34.21123505 176 176 176
1.95215261 0.15372324 34.33211899 168 168 168
2.00600719 0.14919922 34.39417267 175 175 175
1.57317591 0.11320333 33.93564987 188 188 188
0.64407390 0.04619164 33.03664398 233 233 233
1.90246427 0.13215956 34.28640366 170 170 170
1.79046535 0.12447722 34.16587067 187 187 187
1.28735375 0.08824200 33.64769745 212 212 212
0.85714400 0.05866413 33.23338699 214 214 214
1.45641351 0.09865782 33.81850433 195 195 195
1.73564911 0.11249164 34.11008072 182 182 182
1.00502801 0.06036692 33.37618256 210 210 210
0.74897563 0.04509741 33.13587189 223 223 223
2.06517243 0.12218703 34.47064209 167 167 167
1.67046559 0.09434446 34.04741287 195 195 195
1.05530834 0.05864712 33.42609024 213 213 213
1.33195698 0.07235440 33.69997787 205 205 205
1.50014067 0.08087796 33.87100983 183 183 183
1.10510635 0.05623073 33.47644043 210 210 210
1.85583246 0.09128825 34.25090027 178 178 178
1.15793943 0.05753146 33.52865982 213 213 213
1.96541381 0.09589535 34.37081528 177 177 177
1.60417509 0.07263783 33.98491287 185 185 185
2.01646018 0.08943295 34.43034363 163 163 163
1.37756312 0.05765384 33.75217819 210 210 210
0.90132731 0.03652470 33.28406143 210 210 210
1.91613603 0.07371274 34.32484055 175 175 175
1.80618250 0.06806832 34.20619965 170 170 170
1.20443308 0.04442358 33.58066559 206 206 206
1.75773931 0.06206171 34.15470505 179 179 179
0.95331305 0.03402587 33.33566284 210 210 210
1.53928888 0.05234507 33.92382813 189 189 189
2.08510089 0.06536947 34.51118469 157 157 157
1.70062375 0.05240718 34.09661102 193 193 193
0.52028102 0.01596214 32.93403244 236 236 236
1.42106676 0.03918330 33.80477905 195 195 195
1.25041771 0.02993327 33.63331985 206 206 206
0.69695836 0.01712311 33.09706497 231 231 231
1.63646674 0.03374379 34.03480911 193 193 193
1.97600722 0.03578776 34.40765381 179 179 179
1.87013698 0.03289384 34.29025269 178 178 178
2.03350973 0.03489063 34.47337341 173 173 173
1.46505606 0.02092909 33.85803986 197 197 197
0.59380168 0.00909350 33.00392914 233 233 233
0.81241977 0.00958000 33.20901108 218 218 218
1.29582334 0.01340570 33.68592834 199 199 199
1.92679930 0.01375245 34.36213684 176 176 176
1.57014740 0.01165927 33.97297668 188 188 188
1.82053781 0.01070857 34.24506760 177 177 177
1.77156687 0.00471876 34.19373322 185 185 185
1.72203124 0.00188705 34.14135361 175 175 175
2.08063984 0.00039075 34.53829193 168 168 168
1.01807559 0.00035545 33.41187668 214 214 214
1.34139359 -0.00146452 33.73866272 207 207 207
1.12137282 -0.00127733 33.51528549 208 208 208
1.06786513 -0.00206969 33.46186066 203 203 203
1.66571248 -0.00792495 34.08386612 175 175 175
1.50347590 -0.00691579 33.91021347 183 183 183
0.46666327 -0.00226928 32.89183426 222 222 222
1.99354768 -0.01896509 34.45148087 175 175 175
1.16825163 -0.01457724 33.56692886 211 211 211
1.88047397 -0.02660221 34.32754135 178 178 178
1.38497055 -0.01987066 33.79123688 199 199 199
0.85650837 -0.01210043 33.25961685 213 213 213
1.60248899 -0.02705428 34.02346420 191 191 191
0.40555224 -0.00710739 32.83839035 205 205 205
2.03326154 -0.04126960 34.50600052 170 170 170
1.94390261 -0.04003879 34.40460587 185 185 185
0.76013589 -0.01614651 33.16904831 225 225 225
1.21381378 -0.02867429 33.61908340 213 213 213
0.91456604 -0.02299734 33.32036209 216 216 216
1.83091080 -0.04878083 34.28198624 183 183 183
1.42847681 -0.03781727 33.84408188 200 200 200
0.96631056 -0.02547745 33.37125015 211 211 211
1.78181672 -0.05463692 34.23048782 179 179 179
2.08186460 -0.06567121 34.56704330 163 163 163
1.53434706 -0.04761055 33.95970917 189 189 189
0.64661139 -0.01906533 33.06328583 226 226 226
0.36653256 -0.01104862 32.90398788 0 0 0
1.73302209 -0.05757100 34.17811203 175 175 175
1.25860381 -0.04498852 33.67139816 203 203 203
1.68404484 -0.06173054 34.12619781 185 185 185
0.33096787 -0.01272083 32.96498871 0 0 0
1.63193774 -0.06883439 34.07281113 195 195 195
1.89708376 -0.08108442 34.36983871 180 180 180
1.98766637 -0.08652414 34.47400665 178 178 178
1.46734679 -0.06586425 33.89632797 187 187 187
1.30452275 -0.05993329 33.72418213 205 205 205
2.03298545 -0.10604334 34.53468704 180 180 180
1.93763697 -0.10714947 34.42723083 167 167 167
1.56613982 -0.08641994 34.00997543 198 198 198
1.84694946 -0.10309751 34.32420731 176 176 176
1.08405924 -0.05932750 33.50072861 213 213 213
1.34806907 -0.07848124 33.77704620 205 205 205
1.02977312 -0.05968508 33.44726944 203 203 203
1.79782879 -0.11038101 34.27245712 173 173 173
2.07336044 -0.13243632 34.58819199 166 166 166
0.70801491 -0.04398273 33.13047028 228 228 228
1.13074732 -0.07252238 33.55257034 209 209 209
1.74692810 -0.11470423 34.21760941 183 183 183
0.54572970 -0.03461333 32.97628021 234 234 234
1.69827187 -0.11881146 34.16659546 180 180 180
1.39212978 -0.09680402 33.83054352 195 195 195
1.49809325 -0.10696805 33.94610596 188 188 188
0.80972940 -0.05722737 33.23206329 217 217 217
1.64976704 -0.12272357 34.11553192 188 188 188
1.17694795 -0.08700291 33.60457993 217 217 217
1.98772061 -0.15106486 34.50284576 180 180 180
1.89091253 -0.14773712 34.39249039 181 181 181
1.59594691 -0.12832513 34.05956268 193 193 193
0.87011188 -0.07169142 33.29518509 210 210 210
1.22175062 -0.10355054 33.65777588 214 214 214
2.02570558 -0.17564213 34.55744934 180 180 180
1.43101561 -0.12509541 33.88275909 200 200 200
1.93832612 -0.17178044 34.45651627 182 182 182
0.97822970 -0.08544531 33.40643311 210 210 210
0.92770761 -0.08258606 33.35605621 216 216 216
1.81444526 -0.16506882 34.31456375 172 172 172
1.26713669 -0.11834030 33.71009445 213 213 213
1.52972424 -0.14534450 33.99625397 189 189 189
1.76209521 -0.17002088 34.25936890 177 177 177
0.59604228 -0.05619528 33.03067398 233 233 233
1.71174169 -0.17521445 34.20670700 175 175 175
2.05752754 -0.21543387 34.60913467 162 162 162
1.31091082 -0.13660288 33.76240540 210 210 210
1.84851122 -0.19821876 34.36748505 185 185 185
1.66291690 -0.18006529 34.15452194 185 185 185
1.97936714 -0.21784534 34.52439499 168 168 168
0.49200186 -0.05257406 32.93426514 234 234 234
0.75722313 -0.08296946 33.19229507 223 223 223
1.89126408 -0.21253906 34.42221832 180 180 180
1.61379015 -0.18218285 34.10221481 180 180 180
1.04590356 -0.11685845 33.48604202 209 209 209
1.46119189 -0.16553703 33.93219757 191 191 191
1.35408008 -0.15449947 33.81527328 199 199 199
1.55876255 -0.18692397 34.04568481 181 181 181
1.09221900 -0.12991044 33.53767776 212 212 212
1.92999661 -0.23869590 34.47777557 176 176 176
0.65718323 -0.08013438 33.09723663 228 228 228
1.77844107 -0.22482419 34.30222321 182 182 182
2.00993085 -0.25652909 34.57710266 169 169 169
1.13817990 -0.14423843 33.59009552 206 206 206
1.39276063 -0.18268880 33.86772156 196 196 196
1.72749412 -0.23044862 34.24768829 199 199 199
1.18329394 -0.16064234 33.64220428 211 211 211
1.49331152 -0.20450883 33.98293304 191 191 191
1.67680180 -0.23574518 34.19556808 174 174 174
1.84871757 -0.26296234 34.39735413 183 183 183
1.22836351 -0.17552252 33.69471741 206 206 206
0.82285112 -0.11650287 33.26795959 218 218 218
1.95804513 -0.28468773 34.53144455 172 172 172
0.99404144 -0.14255135 33.44558716 213 213 213
0.42842418 -0.06011095 32.87900162 223 223 223
1.62631476 -0.23912078 34.14223099 179 179 179
2.03447437 -0.30287743 34.62433243 172 172 172
0.88261139 -0.13104387 33.33160019 212 212 212
1.79936683 -0.27438053 34.34810638 185 185 185
1.88607514 -0.28836745 34.45225525 175 175 175
1.57658446 -0.24081095 34.08880615 178 178 178
1.27228296 -0.19395335 33.74758530 210 210 210
0.93953264 -0.14259857 33.39190674 212 212 212
1.42359972 -0.22340254 33.91756058 197 197 197
0.70510727 -0.11062905 33.15367889 228 228 228
1.52244771 -0.24619010 34.03252792 194 194 194
1.31594348 -0.21220723 33.80007935 207 207 207
1.74322236 -0.28490949 34.29117966 176 176 176
1.98402262 -0.32874450 34.58223343 169 169 169
1.69186580 -0.29065496 34.23777008 180 180 180
1.91331613 -0.33181575 34.50346756 180 180 180
1.04872584 -0.18089925 33.51544571 205 205 205
1.35415208 -0.24023061 33.85266495 200 200 200
1.83855593 -0.32973829 34.41835785 177 177 177
1.09435344 -0.19511369 33.56762695 213 213 213
1.64078438 -0.29526106 34.18312454 196 196 196
1.45529902 -0.26227632 33.96901703 191 191 191
0.54789639 -0.09986270 33.00307083 248 248 248
1.13930476 -0.21143445 33.61945343 213 213 213
2.00602198 -0.37655216 34.62920380 185 185 185
1.58937609 -0.29773286 34.12903214 191 191 191
0.77037668 -0.14225678 33.22851563 222 222 222
1.76353049 -0.33450902 34.33704758 183 183 183
1.18480957 -0.22595848 33.67163086 210 210 210
1.93864906 -0.37538880 34.55351257 176 176 176
1.53967714 -0.29964688 34.07648468 188 188 188
0.60691774 -0.11722899 33.06440735 234 234 234
1.86582816 -0.37220189 34.46951294 183 183 183
1.22858489 -0.24444696 33.72437286 206 206 206
1.70825422 -0.34549633 34.28064346 183 183 183
1.38481987 -0.28056675 33.90309143 196 196 196
1.48441625 -0.30415571 34.01921463 184 184 184
1.27196181 -0.26294062 33.77740479 215 215 215
1.79212904 -0.37445223 34.38861465 168 168 168
0.99696946 -0.20677967 33.47499084 203 203 203
1.65601814 -0.35031232 34.22625351 176 176 176
0.83550477 -0.17601259 33.30453110 218 218 218
1.96001673 -0.42290428 34.60149002 173 173 173
0.89405817 -0.19076359 33.36737823 215 215 215
0.94665486 -0.20464458 33.42500687 213 213 213
1.89091456 -0.41603568 34.52033615 173 173 173
1.60332203 -0.35390130 34.17049408 182 182 182
1.31065345 -0.29089314 33.82978821 206 206 206
1.41667187 -0.31947321 33.95394135 195 195 195
0.65448296 -0.14667888 33.12038422 236 236 236
1.81969881 -0.41621253 34.43925858 176 176 176
1.72955298 -0.39588171 34.32863235 188 188 188
1.55343080 -0.35737303 34.11786270 188 188 188
1.05028439 -0.24534133 33.54486084 214 214 214
1.50158346 -0.35735002 34.06254578 188 188 188
0.71788043 -0.16989450 33.18986511 228 228 228
1.09534681 -0.26176080 33.59669113 215 215 215
1.91272736 -0.46451730 34.56898499 170 170 170
1.67202938 -0.40527186 34.26993942 181 181 181
1.14092159 -0.27637640 33.64915466 216 216 216
0.49407944 -0.11788512 32.96098328 248 248 248
1.75817072 -0.43588066 34.38042450 179 179 179
1.34149063 -0.33119956 33.87991714 209 209 209
1.95802927 -0.48759237 34.62960815 161 161 161
1.84458768 -0.45966589 34.48942184 175 175 175
1.44519889 -0.36095458 34.00443268 186 186 186
1.18461156 -0.29489747 33.70173264 209 209 209
1.61881864 -0.40885934 34.21335220 184 184 184
1.22803450 -0.31335565 33.75445557 200 200 200
0.78274250 -0.20153840 33.26473999 223 223 223
1.56760252 -0.41384685 34.16029739 185 185 185
1.78635979 -0.47811854 34.43312454 180 180 180
1.69241273 -0.45478889 34.31705856 184 184 184
1.37281191 -0.36961263 33.93038177 203 203 203
1.26670492 -0.34130985 33.80728912 201 201 201
1.86596620 -0.50684500 34.53731155 172 172 172
1.51412332 -0.41407615 34.10297775 192 192 192
0.99862367 -0.27122810 33.50442886 213 213 213
1.90976453 -0.52872008 34.59837723 173 173 173
0.44150093 -0.11999778 32.91403580 231 231 231
0.84702182 -0.23606057 33.34065628 216 216 216
0.90110379 -0.25278512 33.40069199 213 213 213
1.63447607 -0.46362761 34.25714874 194 194 194
1.46333337 -0.41494808 34.04858780 191 191 191
0.94896221 -0.26901266 33.45430374 212 212 212
0.38115200 -0.10608879 32.85383606 216 216 216
1.81130111 -0.52151889 34.48300552 182 182 182
1.72044027 -0.49501288 34.36867905 183 183 183
1.40113604 -0.41079375 33.98028564 192 192 192
0.55894828 -0.16103117 33.03699493 243 243 243
1.29743838 -0.38148096 33.85744476 199 199 199
1.58339119 -0.46929514 34.20426941 195 195 195
1.04992783 -0.31033143 33.57279587 216 216 216
1.09628296 -0.32603657 33.62648773 213 213 213
1.14004397 -0.34499514 33.67921448 213 213 213
1.86252487 -0.57153767 34.56604385 176 176 176
1.74780536 -0.53588867 34.41954041 171 171 171
1.52786160 -0.47012869 34.14476776 188 188 188
1.18338299 -0.36313865 33.73192596 202 202 202
0.60389012 -0.18372861 33.08789063 236 236 236
1.65447962 -0.51306820 34.30429077 192 192 192
1.91029572 -0.59416384 34.62501144 175 175 175
0.66715968 -0.20590129 33.15651703 231 231 231
1.32845461 -0.41990703 33.90806198 202 202 202
0.73044628 -0.22922838 33.22612000 225 225 225
1.47598720 -0.47201538 34.08977890 187 187 187
1.22200453 -0.39113727 33.78429031 208 208 208
1.81270885 -0.58406967 34.51701736 176 176 176
1.59770989 -0.52333224 34.24908066 168 168 168
1.41844928 -0.46382579 34.02454376 188 188 188
1.68292749 -0.55357265 34.35615158 184 184 184
1.76494551 -0.58718526 34.46484756 178 178 178
0.79428238 -0.26119483 33.30064774 218 218 218
0.99783713 -0.33630282 33.53253555 211 211 211
1.54290521 -0.52503055 34.18849945 198 198 198
1.35698426 -0.46140009 33.95804977 200 200 200
1.86054361 -0.63611889 34.59789658 177 177 177
1.25225782 -0.43062776 33.83425140 210 210 210
1.71023321 -0.59478092 34.40849686 175 175 175
0.85437030 -0.29828653 33.37380219 209 209 209
1.61843240 -0.57319671 34.29506683 188 188 188
0.90325481 -0.31702840 33.43029404 214 214 214
1.48925066 -0.52768159 34.13155746 199 199 199
0.94824022 -0.33393714 33.48235321 210 210 210
1.81009173 -0.64801633 34.54791260 176 176 176
1.05064929 -0.37461543 33.60259628 213 213 213
1.09457970 -0.39315167 33.65493011 218 218 218
0.50504273 -0.17876495 32.99493027 255 255 255
1.13760567 -0.41143155 33.70781326 204 204 204
1.43053508 -0.52076209 34.06571579 185 185 185
1.28355980 -0.46946609 33.88507843 200 200 200
1.76146758 -0.65083683 34.49525452 181 181 181
1.55833662 -0.57938504 34.23213196 184 184 184
1.64616358 -0.61303115 34.34665680 189 189 189
1.37387586 -0.51399034 34.00211716 194 194 194
1.17629838 -0.43906042 33.75994492 211 211 211
1.82870591 -0.69956070 34.59361649 159 159 159
1.71310866 -0.65674591 34.44366074 176 176 176
1.50362206 -0.58210748 34.17461395 198 198 198
1.31209707 -0.51104659 33.93544769 198 198 198
0.74190843 -0.28898856 33.26238251 231 231 231
0.67978865 -0.26533198 33.19283295 231 231 231
1.77219307 -0.70688736 34.53736877 178 178 178
1.66359401 -0.66356915 34.39288330 185 185 185
1.57704282 -0.62861037 34.27909470 188 188 188
1.20676219 -0.47921288 33.81022263 217 217 217
1.44334710 -0.57619530 34.10755157 183 183 183
0.61643249 -0.24290431 33.12428665 231 231 231
0.99883628 -0.40055144 33.56213379 203 203 203
0.80176687 -0.32317027 33.33377075 224 224 224
0.45245633 -0.18090752 32.94784927 255 255 255
1.72371924 -0.71235025 34.48596573 183 183 183
1.38645184 -0.57132572 34.04373169 192 192 192
1.60476649 -0.66818631 34.33047104 196 196 196
0.55530322 -0.22738568 33.06098557 249 249 249
1.51873779 -0.63623399 34.21891022 193 193 193
1.23774433 -0.51786655 33.86138153 213 213 213
1.09159029 -0.45820394 33.68200684 213 213 213
1.04777884 -0.43993017 33.62970734 212 212 212
0.94912636 -0.39816722 33.51168823 213 213 213
1.32885063 -0.56379396 33.97941971 199 199 199
1.78847933 -0.76312578 34.57719040 188 188 188
0.90241474 -0.38198087 33.45800781 212 212 212
0.85592163 -0.36224383 33.40377808 218 218 218
1.67355764 -0.71968377 34.43453217 179 179 179
1.12996078 -0.48604399 33.73450470 213 213 213
0.39435753 -0.16604060 32.88895416 222 222 222
1.45793378 -0.63063318 34.15040588 186 186 186
1.73574996 -0.76690751 34.52909851 182 182 182
1.26642370 -0.55910146 33.91108322 200 200 200
1.62294590 -0.71940064 34.37731934 188 188 188
1.53753269 -0.68577409 34.26611328 182 182 182
1.39963067 -0.62742412 34.08609390 180 180 180
1.16003036 -0.52601647 33.78475952 210 210 210
1.68684447 -0.77510673 34.47874832 183 183 183
1.34104109 -0.62002856 34.02043533 195 195 195
1.56606829 -0.72620696 34.31856918 185 185 185
1.47234905 -0.68399066 34.19463348 184 184 184
0.99572951 -0.46577504 33.58964539 216 216 216
0.74886757 -0.35082597 33.29565430 225 225 225
1.63282359 -0.77554953 34.41934204 183 183 183
1.19104457 -0.56426990 33.83570099 197 197 197
0.69129223 -0.32500544 33.22904968 224 224 224
1.28377175 -0.61233604 33.95508194 212 212 212
1.41317165 -0.68155390 34.12945557 188 188 188
1.71673882 -0.83460873 34.53975677 173 173 173
1.04496729 -0.50495112 33.65715790 215 215 215
0.80345815 -0.38715482 33.36379242 217 217 217
0.62893414 -0.30208343 33.16063690 233 233 233
1.58376348 -0.77680099 34.36539078 184 184 184
1.49211621 -0.73415053 34.24197006 195 195 195
0.94657403 -0.46325853 33.53884506 221 221 221
1.08329499 -0.53291547 33.70965195 209 209 209
1.21989143 -0.60569316 33.88553238 200 200 200
0.50165212 -0.24520198 33.01883698 255 255 255
0.90172958 -0.44666046 33.48683548 212 212 212
1.35355985 -0.67562824 34.06269836 193 193 193
0.85472780 -0.42703789 33.43210602 213 213 213
1.64556110 -0.83072037 34.46362305 198 198 198
1.52023101 -0.77388102 34.29413986 196 196 196
0.56802148 -0.28654552 33.09719849 232 232 232
1.42839742 -0.73520684 34.17388535 197 197 197
1.11339855 -0.57290208 33.75995255 214 214 214
1.29531693 -0.66848010 33.99644470 200 200 200
1.59409094 -0.83365756 34.40827179 182 182 182
1.66774869 -0.87900257 34.51184082 179 179 179
1.23631752 -0.65838665 33.93029022 190 190 190
1.36660397 -0.72979552 34.10612106 186 186 186
1.14475298 -0.61110568 33.81034088 212 212 212
1.53743219 -0.82475138 34.34122849 188 188 188
0.99276143 -0.53076267 33.61724091 216 216 216
1.44776511 -0.78533715 34.22201920 191 191 191
1.60625613 -0.88842338 34.45339966 184 184 184
1.30724728 -0.72382623 34.03911972 189 189 189
1.03356230 -0.57155794 33.67748260 216 216 216
1.17296338 -0.65244871 33.86092377 204 204 204
0.75076705 -0.41483966 33.32596970 212 212 212
1.47627008 -0.82547259 34.27458954 194 194 194
0.69791937 -0.38677245 33.26268768 226 226 226
0.44921133 -0.24739823 32.97173691 254 254 254
0.94300705 -0.52795929 33.56672287 210 210 210
1.38195872 -0.78318948 34.14967346 196 196 196
1.54743135 -0.88068730 34.38378906 192 192 192
0.80209714 -0.45202950 33.39213181 216 216 216
0.64021420 -0.36163050 33.19682693 230 230 230
0.89848661 -0.51168895 33.51431656 210 210 210
1.24775136 -0.71465325 33.97158432 191 191 191
1.06343532 -0.61122352 33.72791672 216 216 216
0.40326938 -0.22792539 32.92161179 239 239 239
0.85385919 -0.49178490 33.46141052 213 213 213
1.49281073 -0.87605250 34.32128143 194 194 194
1.32059586 -0.77828908 34.08232880 196 196 196
0.34181216 -0.19692022 32.85348511 221 221 221
1.40120137 -0.83252829 34.19774246 185 185 185
1.18923044 -0.70501059 33.90573120 195 195 195
1.09434521 -0.64932591 33.77906036 210 210 210
1.55966902 -0.93540800 34.42889023 184 184 184
0.51451355 -0.30467039 33.05492783 240 240 240
0.58024776 -0.34567481 33.13400269 234 234 234
1.42887306 -0.87173146 34.24969864 186 186 186
0.98100448 -0.59728998 33.63788605 219 219 219
1.25986207 -0.77044523 34.01438522 196 196 196
1.12290597 -0.69129378 33.82928085 211 211 211
1.50298011 -0.93206668 34.36473846 189 189 189
1.33538425 -0.83138561 34.12694168 191 191 191
1.01133239 -0.63806427 33.68824768 221 221 221
1.20065355 -0.76112437 33.94691467 194 194 194
1.44530118 -0.92241848 34.29603958 185 185 185
0.93184686 -0.59480995 33.58732605 213 213 213
0.74953365 -0.47991753 33.35404205 219 219 219
1.27369750 -0.82504880 34.05782318 188 188 188
1.51463854 -0.98598015 34.40881729 170 170 170
1.35546017 -0.88108933 34.17493439 195 195 195
0.80130953 -0.51670069 33.42151642 211 211 211
0.69955909 -0.45061558 33.29313660 225 225 225
1.04244208 -0.67781788 33.74043655 206 206 206
1.13919175 -0.74379712 33.87413406 199 199 199
0.88703120 -0.57854623 33.53509140 210 210 210
0.64685500 -0.42337888 33.23062134 226 226 226
1.38258004 -0.92011803 34.22717667 190 190 190
0.84368432 -0.55849648 33.48295212 218 218 218
1.45586419 -0.97834033 34.33951569 190 190 190
1.07059538 -0.71924001 33.79064560 217 217 217
1.21273160 -0.81679094 33.98914719 188 188 188
0.46217683 -0.30690983 33.00767136 243 243 243
1.28863144 -0.87812364 34.10201645 196 196 196
1.39985859 -0.97232336 34.27518463 185 185 185
0.59156185 -0.40532777 33.17030716 233 233 233
0.95858908 -0.66356564 33.64886856 213 213 213
1.15098882 -0.80088884 33.91593933 201 201 201
0.52674609 -0.36378062 33.09165192 231 231 231
1.46855378 -1.03288710 34.38335037 173 173 173
1.30794597 -0.92763084 34.15139389 188 188 188
1.22616088 -0.87116957 34.03290558 200 200 200
1.08713901 -0.77160269 33.83541107 198 198 198
0.99022204 -0.70446879 33.70106888 218 218 218
1.33608174 -0.96764845 34.20286179 203 203 203
1.40997827 -1.02845359 34.31919479 191 191 191
0.90943915 -0.66095030 33.59829330 215 215 215
0.74810421 -0.54406005 33.38375854 216 216 216
1.01851690 -0.74621838 33.75123596 209 209 209
1.16288030 -0.85650367 33.95816040 201 201 201
0.79065937 -0.58330435 33.44348907 211 211 211
1.24108291 -0.92452741 34.07823181 193 193 193
0.69794285 -0.51536185 33.32142258 219 219 219
0.40179172 -0.29368490 32.94759369 244 244 244
0.83906996 -0.62370789 33.50975037 216 216 216
1.35194182 -1.01794767 34.25071335 185 185 185
1.09868801 -0.82764482 33.87680435 203 203 203
0.35023770 -0.25881130 32.88678360 220 220 220
0.64855176 -0.48730233 33.26100540 227 227 227
1.26049209 -0.97389549 34.12643814 191 191 191
1.03511512 -0.79864097 33.79570389 206 206 206
1.17581868 -0.91049969 34.00180817 202 202 202
0.93736213 -0.72962171 33.66142273 210 210 210
1.39876318 -1.09644735 34.33456039 191 191 191
0.47439981 -0.36607510 33.04436874 243 243 243
1.28810835 -1.01361835 34.17914581 194 194 194
0.59820527 -0.46701011 33.20411682 238 238 238
0.85688204 -0.67614365 33.55379868 214 214 214
1.11084783 -0.88324940 33.91852188 201 201 201
1.35069108 -1.07989204 34.28507996 191 191 191
0.53780001 -0.42318550 33.12824249 235 235 235
0.96572834 -0.77067983 33.71124649 211 211 211
1.19061553 -0.96332079 34.04711151 204 204 204
1.30511713 -1.06541240 34.22731781 185 185 185
1.04652894 -0.85503685 33.83761597 200 200 200
0.88786703 -0.72724515 33.61100769 211 211 211
0.78624445 -0.64888352 33.47021484 217 217 217
0.73812228 -0.61092502 33.40523148 216 216 216
1.12347758 -0.93694532 33.96251297 191 191 191
1.21034479 -1.01263022 34.09547424 198 198 198
0.69688660 -0.57968581 33.35087204 224 224 224
0.98238897 -0.82373887 33.75567627 210 210 210
1.23795390 -1.05279684 34.14878082 188 188 188
1.05802906 -0.91111201 33.87997818 203 203 203
0.64649880 -0.55198592 33.28973389 218 218 218
1.30375707 -1.12739253 34.26116180 171 171 171
0.41440067 -0.35292432 32.98371506 238 238 238
1.13826418 -0.98965764 34.00735092 201 201 201
0.91298485 -0.79541099 33.67108536 216 216 216
0.80385643 -0.70105952 33.51436996 218 218 218
1.25470006 -1.10327339 34.19571686 202 202 202
0.99371028 -0.87970537 33.79735947 205 205 205
0.48551384 -0.42541477 33.08079147 237 237 237
0.83521581 -0.74227750 33.56600189 216 216 216
0.59966469 -0.53112066 33.23517990 221 221 221
1.15775621 -1.03792238 34.05544662 181 181 181
1.07094681 -0.96474957 33.92440033 192 192 192
0.54455703 -0.48505092 33.16201019 231 231 231
1.18568015 -1.07785428 34.10811615 194 194 194
0.92974949 -0.84869659 33.71567154 218 218 218
0.86365122 -0.79316080 33.62068939 214 214 214
0.73339099 -0.67613828 33.43213272 214 214 214
1.00531137 -0.93526614 33.83966827 204 204 204
0.29656690 -0.26800379 32.84196091 205 205 205
1.20238221 -1.12811887 34.15536880 193 193 193
1.08609402 -1.01751530 33.96884918 206 206 206
1.24481070 -1.16978872 34.21694565 187 187 187
0.68662626 -0.64621007 33.37236786 215 215 215
0.34879002 -0.32450116 32.91264725 231 231 231
0.64575535 -0.61628115 33.31895065 224 224 224
1.10536921 -1.06614804 34.01748657 190 190 190
0.94088084 -0.90525359 33.75794220 211 211 211
1.01827633 -0.98883379 33.88373184 196 196 196
1.13350677 -1.10581720 34.06951523 196 196 196
0.75101137 -0.72864270 33.47647095 213 213 213
0.87781644 -0.85651600 33.66781235 215 215 215
0.42659304 -0.41215697 33.02051544 236 236 236
0.78182751 -0.76692647 33.52703094 211 211 211
0.81059819 -0.80847645 33.57634354 218 218 218
1.15002036 -1.15612972 34.11652374 190 190 190
0.49240401 -0.48722631 33.11454773 229 229 229
0.59760821 -0.59573150 33.26390457 225 225 225
1.03367221 -1.04223263 33.92858505 202 202 202
0.95228869 -0.96062726 33.80054474 205 205 205
0.54588616 -0.54875606 33.19287872 225 225 225
0.88939494 -0.91220695 33.70973969 211 211 211
1.05279040 -1.09016812 33.97680283 190 190 190
1.08119678 -1.13169706 34.02951813 202 202 202
0.82638317 -0.86221105 33.61961746 211 211 211
0.96574235 -1.01473856 33.84437943 196 196 196
0.68144208 -0.71161550 33.40029144 210 210 210
0.90113980 -0.96734297 33.75228500 224 224 224
1.09726262 -1.18231511 34.07723236 194 194 194
0.63492137 -0.68286932 33.34131622 219 219 219
0.36133167 -0.38377869 32.94894028 240 240 240
0.98037857 -1.06746471 33.88914490 197 197 197
0.72911310 -0.79471070 33.48906708 216 216 216
0.43797573 -0.47196028 33.05743408 236 236 236
0.83779895 -0.91846323 33.66140747 216 216 216
0.75787973 -0.83647251 33.53868866 219 219 219
0.99984753 -1.11551321 33.93716812 194 194 194
0.91476780 -1.02160347 33.79584122 214 214 214
1.02826881 -1.15525341 33.98911285 192 192 192
0.59183574 -0.66138065 33.28973007 218 218 218
0.68749648 -0.77164596 33.43689728 212 212 212
0.49367273 -0.55083483 33.14542007 226 226 226
0.54396558 -0.61327642 33.22149658 222 222 222
0.84993362 -0.97356611 33.70409012 215 215 215
1.04461956 -1.20630157 34.03647614 194 194 194
0.77344763 -0.89061332 33.58264542 224 224 224
0.92858583 -1.07492197 33.84090042 210 210 210
0.29482621 -0.33374149 32.86813736 217 217 217
0.86336738 -1.02762496 33.74792862 213 213 213
0.94768459 -1.13040030 33.89211655 202 202 202
0.62960315 -0.74817920 33.36943436 213 213 213
0.97552353 -1.18095326 33.94993973 198 198 198
0.78459120 -0.94688690 33.62471008 219 219 219
0.37354028 -0.44304693 32.98575211 236 236 236
0.44478482 -0.53428596 33.09217072 239 239 239
0.70427471 -0.85998207 33.49906158 210 210 210
0.87741661 -1.08202624 33.79286194 213 213 213
0.99156004 -1.23161530 33.99715805 185 185 185
0.58545154 -0.72674245 33.31663895 219 219 219
0.79716903 -1.00282490 33.66760635 216 216 216
0.49186841 -0.61537153 33.17402267 228 228 228
0.89588404 -1.13752604 33.84408188 200 200 200
0.66287899 -0.83700359 33.44665527 213 213 213
0.71996915 -0.91401452 33.54307556 213 213 213
0.53796297 -0.67877531 33.24759674 221 221 221
0.92243588 -1.19530594 33.90513229 196 196 196
0.81043833 -1.05708468 33.71176147 213 213 213
0.30730087 -0.39294785 32.90458679 240 240 240
0.62100708 -0.81370384 33.39477158 216 216 216
0.93934166 -1.24644196 33.95216370 178 178 178
0.38457164 -0.50220990 33.02265167 234 234 234
0.73114175 -0.97012639 33.58476257 202 202 202
0.82439870 -1.11088431 33.75621033 207 207 207
0.44587249 -0.59791315 33.12340927 227 227 227
0.84284842 -1.16065478 33.80377960 212 212 212
0.87131244 -1.20291793 33.85704041 198 198 198
0.57827944 -0.79198164 33.34296417 218 218 218
0.74338287 -1.02528465 33.62736511 216 216 216
0.66796237 -0.92060876 33.49578476 216 216 216
0.24301234 -0.33113414 32.82017136 214 214 214
0.53156900 -0.74396092 33.27446365 225 225 225
0.88727248 -1.25696361 33.90522003 207 207 207
0.48603186 -0.68103760 33.19996643 218 218 218
0.75685042 -1.07926238 33.67144775 224 224 224
0.62616789 -0.89747953 33.44344330 214 214 214
0.67894626 -0.97672361 33.53737259 213 213 213
0.31946239 -0.45196435 32.94122696 233 233 233
0.39124581 -0.56377596 33.05681992 223 223 223
0.77094233 -1.13308549 33.71559906 211 211 211
0.69166130 -1.03202581 33.57977676 213 213 213
0.81781614 -1.22563064 33.81694031 201 201 201
0.78947079 -1.18238056 33.76287842 212 212 212
0.58468962 -0.87411535 33.39127731 215 215 215
0.44036025 -0.66337204 33.14911652 216 216 216
0.83507210 -1.27900410 33.86232758 182 182 182
0.70500708 -1.08588850 33.62385178 218 218 218
0.52442801 -0.80947083 33.30095291 220 220 220
0.62768590 -0.97801811 33.48848724 215 215 215
0.47973311 -0.74652702 33.22665405 215 215 215
0.33089063 -0.51143390 32.97776031 230 230 230
0.25535658 -0.39108086 32.85674667 221 221 221
0.71894675 -1.13940120 33.66822052 216 216 216
0.73646492 -1.19473326 33.71741486 213 213 213
0.64006084 -1.03536963 33.53184509 223 223 223
0.39250684 -0.62765473 33.08799744 223 223 223
0.53583163 -0.86695039 33.34059143 220 220 220
0.76421046 -1.24688196 33.77610397 202 202 202
0.58615416 -0.95521754 33.43603897 218 218 218
0.65299761 -1.09095788 33.57616806 215 215 215
0.43439534 -0.72841603 33.17578888 218 218 218
0.66680110 -1.14555156 33.62111664 215 215 215
0.54456198 -0.93178666 33.38380432 216 216 216
0.26755601 -0.45012641 32.89339447 229 229 229
0.33713061 -0.57307810 33.01250076 226 226 226
0.47255713 -0.81195080 33.25305176 218 218 218
0.68435657 -1.20094037 33.67008591 216 216 216
0.58872849 -1.03677487 33.48329544 218 218 218
0.71107894 -1.25958025 33.73140335 214 214 214
0.48343852 -0.86911380 33.29302597 225 225 225
0.38692909 -0.69333214 33.11402130 218 218 218
0.60138494 -1.09428930 33.52799225 212 212 212
0.54729271 -1.01413739 33.43080902 214 214 214
0.61493021 -1.15034246 33.57331085 213 213 213
0.27889442 -0.50964588 32.93014526 234 234 234
0.42737451 -0.79359829 33.20203400 213 213 213
0.49512759 -0.92584193 33.33375168 225 225 225
0.63214970 -1.20729280 33.62284470 215 215 215
0.33882487 -0.63676643 33.04301453 225 225 225
0.65928179 -1.26589262 33.68363953 207 207 207
0.50585198 -0.99052620 33.37856674 213 213 213
0.20293619 -0.38832560 32.80938721 210 210 210
0.55009598 -1.09604526 33.47964478 216 216 216
0.38068083 -0.75841153 33.14125824 221 221 221
0.43203902 -0.86957878 33.24458313 219 219 219
0.28548971 -0.57128108 32.96439362 229 229 229
0.56320763 -1.15431154 33.52514648 210 210 210
0.58052927 -1.21240997 33.57507324 213 213 213
0.60775709 -1.27262950 33.63581085 205 205 205
0.44341701 -0.92701983 33.28569794 221 221 221
0.50858819 -1.07361627 33.42696381 216 216 216
0.33304396 -0.70215988 33.06927872 218 218 218
0.21507967 -0.44800574 32.84622955 216 216 216
0.45618674 -0.98487765 33.32876968 216 216 216
0.38702241 -0.85098326 33.19358444 220 220 220
0.46738639 -1.04951012 33.37496567 217 217 217
0.28654304 -0.63472897 32.99553299 225 225 225
0.51175934 -1.15580201 33.47691727 220 220 220
0.52839035 -1.21626723 33.52746964 213 213 213
0.22654806 -0.50754058 32.88280487 224 224 224
0.32698515 -0.76780558 33.09652328 221 221 221
0.34816512 -0.82098848 33.14297867 218 218 218
0.39157310 -0.92773968 33.23791504 225 225 225
0.47013032 -1.13310337 33.42434692 220 220 220
0.40422857 -0.98587662 33.28110504 221 221 221
0.23331459 -0.56913400 32.91695786 226 226 226
0.41770422 -1.04427445 33.32501602 220 220 220
0.28102657 -0.70055437 33.02150726 224 224 224
0.47677892 -1.21702635 33.47918320 212 212 212
0.42920798 -1.10893905 33.37213516 219 219 219
0.34650457 -0.90883726 33.18659210 218 218 218
0.43541604 -1.19483483 33.42643738 215 215 215
0.23479678 -0.63268918 32.94765472 225 225 225
0.35233229 -0.98654872 33.23304749 226 226 226
0.27513671 -0.76540673 33.04870224 215 215 215
0.16287524 -0.44549748 32.79889679 207 207 207
0.29427263 -0.83027667 33.09839630 218 218 218
0.36563635 -1.04511988 33.27743149 220 220 220
0.37935719 -1.10354280 33.32250595 216 216 216
0.39434144 -1.17049575 33.37418365 215 215 215
0.30145061 -0.88987565 33.13565445 218 218 218
0.17457466 -0.50488329 32.83522034 217 217 217
0.22912993 -0.69839746 32.97382355 221 221 221
0.30743051 -0.96784401 33.18188477 218 218 218
0.18127379 -0.56649423 32.86940002 222 222 222
0.31356752 -1.04553556 33.22960281 218 218 218
0.32759008 -1.10491276 33.27457428 216 216 216
0.34443423 -1.16503048 33.32443237 216 216 216
0.24259405 -0.82821095 33.05046463 221 221 221
0.22333390 -0.76388383 33.00078964 227 227 227
0.18275903 -0.63006335 32.90011978 218 218 218
0.25006574 -0.88805234 33.08723831 218 218 218
0.26271757 -0.94860804 33.13058472 218 218 218
0.26883492 -1.02695167 33.17805862 217 217 217
0.29246917 -1.16644645 33.27669907 217 217 217
0.27567127 -1.10506511 33.22673416 232 232 232
0.17691620 -0.69586736 32.92641449 221 221 221
0.11362530 -0.43305340 32.74996948 201 201 201
0.12206720 -0.50235587 32.78814697 212 212 212
0.19048655 -0.82644212 33.00299072 218 218 218
0.22391936 -1.00771546 33.12688065 213 213 213
0.21102013 -0.94658679 33.08267212 216 216 216
0.19800729 -0.88644868 33.03961563 216 216 216
0.17130226 -0.76131624 32.95316315 215 215 215
0.12889072 -0.56406951 32.82222748 218 218 218
0.23070753 -1.08641505 33.17539978 218 218 218
0.24133474 -1.16761589 33.22789001 215 215 215
0.13039443 -0.62771100 32.85287094 220 220 220
0.12482448 -0.69327211 32.87895203 219 219 219
0.18605888 -1.06717193 33.12416840 218 218 218
0.17248920 -1.00563073 33.07860565 225 225 225
0.19112639 -1.14409530 33.16563034 213 213 213
0.15887527 -0.94493151 33.03516388 214 214 214
0.13858500 -0.82478452 32.95529556 222 222 222
0.14570525 -0.88506836 32.99208450 222 222 222
0.11930996 -0.75885308 32.90547180 222 222 222
0.07261668 -0.48958412 32.73939133 204 204 204
0.07785238 -0.55638593 32.77419662 203 203 203
0.13390917 -1.06482613 33.07645035 200 200 200
0.11989553 -1.00406885 33.03153229 201 201 201
0.07920110 -0.62048149 32.80489349 204 204 204
0.10660654 -0.94362950 32.98772812 208 208 208
0.09441058 -0.87927353 32.94405365 209 209 209
0.07369646 -0.68663001 32.83079910 205 205 205
0.08494402 -0.82048285 32.90625381 208 208 208
0.06810424 -0.75200015 32.85727692 205 205 205
0.06756631 -1.00231266 32.98426819 201 201 201
0.05519089 -0.93864417 32.93966293 210 210 210
0.04206590 -0.87650406 32.89670181 214 214 214
0.03060023 -0.60550869 32.75589752 200 200 200
0.02795431 -0.54218823 32.72486877 201 201 201
0.03370322 -0.81415457 32.85808563 217 217 217
0.02238159 -0.47729346 32.69132233 182 182 182
0.02515749 -0.67157751 32.78183365 203 203 203
0.01959442 -0.73689371 32.80832672 201 201 201
0.00337998 -0.93525398 32.89188385 195 195 195
-0.00908519 -0.87011319 32.84840775 210 210 210
-0.01453228 -0.79864413 32.80881500 207 207 207
-0.01999060 -0.64898950 32.73248672 206 206 206
-0.02562361 -0.71493179 32.75868988 210 210 210
-0.02255385 -0.58558124 32.70165634 195 195 195
-0.02659230 -0.52300739 32.66928864 189 189 189
-0.05535660 -0.86723471 32.79527283 210 210 210
-0.05998943 -0.77766609 32.75912857 206 206 206
