0.38744715 2.60730577 43.84737778 164 164 164
0.37257615 2.49045014 43.87560654 169 169 169
0.41532046 2.71332693 43.80106354 161 161 161
0.45534003 2.81526351 43.75034332 169 169 169
0.36934358 2.37107468 43.88861084 165 165 165
0.50521380 2.90404034 43.68757248 162 162 162
0.37818894 2.25253057 43.88585281 164 164 164
0.44671866 2.52149343 43.78801727 173 173 173
0.47910625 2.62994814 43.74531174 169 169 169
0.56266642 2.98572373 43.62197495 170 170 170
0.44365543 2.40250206 43.80191040 168 168 168
0.51843083 2.73115635 43.69588852 169 169 169
0.39927092 2.13596058 43.87352371 165 165 165
0.56955993 2.81835437 43.63365936 174 174 174
0.62594384 3.05063009 43.54481888 154 154 154
0.45465836 2.28355622 43.80104446 180 180 180
0.53244561 2.53151107 43.70673752 168 168 168
0.62545836 2.90190220 43.56686401 175 175 175
0.57098961 2.63213301 43.65790558 173 173 173
0.69536406 3.10865927 43.46731567 161 161 161
0.42770147 2.02395344 43.84472656 170 170 170
0.53014350 2.41241455 43.72111511 176 176 176
0.47600561 2.16596174 43.78844833 173 173 173
0.62492293 2.72063112 43.59495544 179 179 179
0.69134963 2.96490765 43.49126434 168 168 168
0.76714182 3.15137267 43.38296509 173 173 173
0.68012142 2.80329967 43.52893066 171 171 171
0.54072833 2.29280472 43.71987915 165 165 165
0.75978833 3.02460289 43.41310501 170 170 170
0.61894011 2.52754426 43.62464905 169 169 169
0.67125064 2.61576509 43.56305695 163 163 163
0.46669462 1.91740227 43.81076813 170 170 170
0.74790263 2.86745238 43.45253372 172 172 172
0.84299064 3.18758392 43.29950714 161 161 161
0.50948036 2.05516148 43.76275253 171 171 171
0.61678344 2.40831089 43.63924408 171 171 171
0.83419830 3.06839490 43.32962036 177 177 177
0.56201148 2.17402148 43.70747375 169 169 169
0.72738111 2.69734406 43.49809647 171 171 171
0.81509119 2.92606187 43.37469482 171 171 171
0.92075944 3.21719813 43.21537399 165 165 165
0.62765026 2.28797317 43.63866806 169 169 169
0.70394051 2.50090122 43.54582977 170 170 170
0.79357052 2.76122594 43.42367554 173 173 173
0.90973866 3.10223746 43.24494934 170 170 170
0.54834038 1.94670010 43.72940063 163 163 163
0.76067644 2.58475614 43.48036957 170 170 170
0.88883418 2.96871209 43.29222870 171 171 171
0.70134407 2.38149762 43.56034851 168 168 168
0.51178819 1.81590664 43.76817703 167 167 167
0.59566921 2.06119418 43.68166351 168 168 168
0.99958253 3.23198962 43.12687683 168 168 168
0.86211729 2.82141566 43.34549713 172 172 172
0.64851713 2.17139006 43.62641907 170 170 170
0.99021327 3.11752152 43.15865326 172 172 172
0.82805574 2.64700508 43.40534592 173 173 173
0.96513093 3.00416636 43.20789719 172 172 172
0.71227258 2.26348996 43.55925751 172 172 172
0.78658408 2.46523237 43.46877289 166 166 166
0.93693817 2.86208224 43.26277542 170 170 170
1.08017492 3.24038291 43.03908539 169 169 169
0.89678431 2.70965028 43.32763672 171 171 171
1.07143402 3.12615657 43.07161713 173 173 173
0.63475567 1.95371258 43.64847565 175 175 175
0.59499997 1.84584737 43.68838501 169 169 169
0.85327321 2.53087854 43.39576340 173 173 173
0.78330153 2.34242487 43.48419952 172 172 172
0.68209541 2.05979514 43.60010529 165 165 165
1.04561687 3.01751423 43.12153625 172 172 172
1.01295304 2.89918780 43.17746735 173 173 173
0.56291515 1.71951795 43.72177124 167 167 167
1.16008067 3.23958802 42.95177841 168 168 168
0.73849028 2.14888954 43.54170990 173 173 173
0.97232640 2.74871612 43.24471283 170 170 170
0.92074013 2.59377742 43.32015991 177 177 177
0.85761768 2.39303350 43.40620041 170 170 170
1.15257895 3.12519670 42.98478317 169 169 169
0.80105650 2.22557878 43.47577286 169 169 169
1.12737083 3.02043867 43.03451157 178 178 178
1.09425402 2.91368842 43.09046173 166 166 166
1.04781711 2.78523564 43.16092300 173 173 173
1.24157262 3.23586845 42.86537170 166 166 166
0.92414349 2.46006799 43.33282471 174 174 174
0.99728847 2.63121653 43.23664093 170 170 170
0.72131836 1.95315039 43.56694794 170 170 170
0.68185449 1.84608066 43.60693359 176 176 176
1.23357034 3.12166691 42.89820099 173 173 173
0.87539387 2.27528310 43.39812851 170 170 170
0.77708822 2.04172373 43.50950241 173 173 173
0.64720505 1.73507857 43.63990784 173 173 173
1.20923722 3.01372147 42.94815063 176 176 176
0.99683148 2.51381087 43.25291824 179 179 179
1.17615557 2.91134357 43.00410080 178 178 178
1.12909901 2.80166483 43.07363129 174 174 174
1.07396066 2.66942835 43.15213394 169 169 169
1.32313442 3.22251940 42.77947617 181 181 181
0.84202218 2.11950517 43.44304657 172 172 172
0.94238359 2.34184694 43.32651138 170 170 170
0.62367940 1.62175322 43.67018890 171 171 171
1.31488359 3.10838103 42.81219864 168 168 168
1.07277656 2.55238152 43.16955948 172 172 172
1.29095781 3.00098181 42.86264420 170 170 170
1.01334727 2.39616537 43.24888992 177 177 177
1.15364480 2.68554878 43.06559753 168 168 168
0.76796514 1.85272872 43.52400970 172 172 172
1.25782108 2.89940763 42.91848373 171 171 171
1.21125138 2.79771018 42.98764801 176 176 176
0.91823953 2.16984391 43.36453629 165 165 165
1.40389967 3.20357609 42.69454956 182 182 182
0.82483721 1.93995571 43.46768570 169 169 169
0.73342001 1.74252498 43.55888748 174 174 174
1.39641416 3.08899474 42.72726822 172 172 172
0.98615235 2.23750782 43.29089737 173 173 173
1.15300035 2.56809545 43.08391953 178 178 178
0.88731575 2.01778603 43.40257645 168 168 168
1.08999670 2.43361640 43.16616821 170 170 170
0.70554262 1.63033509 43.58484268 178 178 178
1.37150538 2.98250651 42.77761459 165 165 165
1.23564017 2.68024850 42.97965240 166 166 166
1.48404181 3.17871213 42.61007690 167 167 167
1.33910179 2.88154006 42.83398819 170 170 170
1.29319108 2.78705835 42.90097427 168 168 168
1.05862057 2.29277134 43.21256638 170 170 170
0.96320927 2.06668210 43.32577896 170 170 170
1.47692704 3.06372738 42.64267349 168 168 168
1.17162001 2.45073056 43.07985687 181 181 181
0.85129505 1.82543361 43.44403839 172 172 172
1.23554111 2.56202507 42.99839401 178 178 178
1.45151770 2.95790792 42.69295120 170 170 170
1.56275463 3.14254165 42.52933502 169 169 169
1.03058898 2.13358045 43.25382996 170 170 170
1.13638484 2.33101702 43.12915039 171 171 171
0.70433134 1.51141179 43.59449387 166 166 166
1.31722450 2.66860008 42.89396286 167 167 167
1.41977668 2.85737371 42.74954987 170 170 170
0.91585833 1.90506673 43.37989807 173 173 173
1.37390399 2.76764464 42.81654739 175 175 175
0.81681466 1.71541846 43.47913742 174 174 174
1.55568004 3.02707815 42.56156158 176 176 176
1.10263824 2.18755722 43.17625809 174 174 174
0.78902072 1.60279441 43.50487518 173 173 173
1.25364685 2.44336414 42.99417496 177 177 177
1.31741929 2.54930615 42.91225052 178 178 178
1.53091788 2.92114687 42.61161041 168 168 168
0.99197578 1.95197332 43.30216217 171 171 171
1.64092600 3.10691500 42.44770050 173 173 173
1.21836710 2.33840132 43.04299545 172 172 172
1.39807081 2.65095687 42.80924606 173 173 173
1.45452821 2.74479771 42.73124313 175 175 175
1.74815989 3.22109294 42.00655365 0 0 0
1.06018424 2.02089167 43.23018646 173 173 173
1.17949450 2.22463751 43.09408188 174 174 174
1.51477540 2.80936551 42.65195084 169 169 169
0.93263668 1.78794384 43.36618042 184 184 184
1.63399541 2.99085569 42.47959900 172 172 172
1.33472419 2.42974687 42.90880585 175 175 175
1.39772773 2.53098774 42.82723236 173 173 173
0.78229362 1.48388469 43.50893402 174 174 174
1.61016881 2.88475394 42.52993011 169 169 169
0.89787710 1.67796397 43.40119171 178 178 178
1.71855533 3.06572580 42.36777878 167 167 167
1.13441443 2.07561684 43.15184402 173 173 173
1.47814679 2.62688875 42.72449112 170 170 170
1.30020928 2.32486558 42.95779419 182 182 182
1.01035845 1.83595514 43.28762817 166 166 166
1.53971386 2.69375706 42.64517593 176 176 176
1.82798290 3.16143537 41.89670944 0 0 0
1.59417117 2.77264142 42.57015228 176 176 176
1.26150131 2.22231317 43.00847626 171 171 171
1.71073401 2.94960356 42.39943695 175 175 175
1.86998129 3.19776058 42.01094818 0 0 0
0.86977482 1.56483877 43.42693329 173 173 173
1.07843828 1.90459156 43.21745682 170 170 170
1.21229517 2.11364937 43.06860733 169 169 169
1.41590381 2.41253877 42.82297134 182 182 182
1.47782898 2.50950456 42.74227905 173 173 173
1.68714941 2.84320641 42.44911575 173 173 173
1.79117525 3.00888968 42.29367447 180 180 180
0.98217964 1.69159436 43.31817627 171 171 171
1.15184426 1.95896280 43.14005280 175 175 175
1.38161099 2.30797648 42.87219620 170 170 170
1.55409431 2.57573652 42.64757538 166 166 166
1.61785161 2.65597343 42.56360245 174 174 174
1.67152011 2.73037982 42.48890686 173 173 173
1.78357375 2.89216065 42.32569122 176 176 176
1.34271669 2.20626330 42.92354584 177 177 177
1.29492593 2.11172938 42.98179245 164 164 164
1.08717048 1.78660989 43.21189880 166 166 166
0.86225003 1.44418240 43.43128586 165 165 165
1.22986269 1.99600673 43.05856705 175 175 175
0.95415771 1.57819343 43.34468842 169 169 169
1.86308467 2.94687486 42.22206879 172 172 172
1.49659061 2.39206409 42.73682785 174 174 174
1.76066816 2.78529024 42.37545395 170 170 170
1.56006515 2.45754695 42.65828705 169 169 169
1.46198833 2.28830981 42.78690338 168 168 168
1.63172162 2.53667808 42.56631851 180 180 180
1.16043258 1.84062934 43.13611221 172 172 172
1.69434154 2.61275673 42.48359680 183 183 183
1.85551035 2.83252311 42.25295258 178 178 178
1.06510854 1.67243111 43.23522186 175 175 175
1.42372739 2.18681407 42.83890533 170 170 170
1.75822210 2.66719532 42.39962387 168 168 168
1.37626493 2.09279609 42.89690399 173 173 173
1.93581986 2.88780403 42.14905167 174 174 174
1.31176269 1.99262965 42.97238159 170 170 170
1.83159018 2.72296405 42.30393982 165 165 165
1.23874378 1.87622929 43.05464554 180 180 180
0.94672132 1.45965087 43.34938049 178 178 178
1.57093430 2.33877802 42.66090393 176 176 176
1.63682830 2.41762662 42.57734680 180 180 180
1.70818162 2.49516392 42.48586273 179 179 179
1.03781986 1.55787766 43.26279068 183 183 183
1.15656221 1.72018468 43.14208984 168 168 168
1.53618407 2.23505640 42.71087265 183 183 183
1.92663586 2.77064705 42.18141937 186 186 186
1.77306330 2.54882312 42.40271759 173 173 173
0.88415939 1.32960832 43.41046524 170 170 170
1.83671367 2.60543489 42.31938934 176 176 176
2.00407124 2.81950355 42.08057022 181 181 181
1.49774957 2.13388300 42.76327133 176 176 176
1.90309477 2.66303563 42.22976685 171 171 171
1.39271665 1.97531700 42.88751984 173 173 173
1.32052064 1.87461102 42.96809769 172 172 172
1.23566985 1.75798285 43.06030655 172 172 172
1.64869559 2.29948807 42.57893372 178 178 178
1.71257031 2.37491226 42.49685287 181 181 181
1.13402343 1.60499465 43.16666412 173 173 173
1.46337557 2.02964401 42.80767822 172 172 172
1.77943003 2.43059826 42.41352463 181 181 181
1.99572241 2.70391369 42.11179352 176 176 176
1.61312830 2.19659543 42.62946320 170 170 170
1.84404182 2.48623848 42.33003235 173 173 173
1.02957225 1.43757308 43.26778412 180 180 180
1.90779209 2.54437232 42.24577332 180 180 180
0.96800691 1.34550035 43.32507324 176 176 176
2.07083058 2.74648213 42.01488113 178 178 178
1.57481408 2.09537053 42.68173218 177 177 177
1.97244644 2.59558582 42.16012192 172 172 172
1.21693051 1.63849926 43.08127213 171 171 171
1.10674095 1.49211395 43.19233704 178 178 178
1.31778443 1.75478399 42.97509766 175 175 175
1.40296781 1.85744870 42.88264084 183 183 183
1.72428238 2.25487876 42.49897385 178 178 178
1.78899157 2.31271267 42.41751099 177 177 177
1.47389698 1.91115034 42.80353165 171 171 171
2.06051874 2.62814927 42.04774475 170 170 170
1.54085982 1.99062240 42.72645569 183 183 183
1.85429096 2.36788487 42.33485031 176 176 176
1.68878174 2.15179157 42.54947662 173 173 173
1.91840482 2.42634892 42.25240326 179 179 179
2.13380647 2.66960049 41.95026398 169 169 169
1.98288727 2.47736597 42.16666412 173 173 173
1.19282079 1.52228165 43.10558701 167 167 167
1.29947436 1.63768804 42.99621582 173 173 173
1.65062809 2.05049443 42.60215378 171 171 171
2.05238581 2.51281190 42.07760239 173 173 173
1.40023041 1.73922586 42.88895798 173 173 173
1.79453683 2.19353056 42.42518997 176 176 176
1.05054057 1.32310784 43.24283600 170 170 170
1.85990119 2.24888206 42.34344482 180 180 180
2.12629724 2.55448866 41.98145676 173 173 173
1.47217166 1.79223466 42.81135941 182 182 182
1.92406297 2.30719328 42.26089478 180 180 180
1.55189013 1.87240303 42.72122955 178 178 178
1.61600244 1.94567788 42.64650726 177 177 177
1.12647676 1.37765908 43.16923141 180 180 180
1.99132943 2.35934758 42.17469788 184 184 184
2.18655419 2.58043289 41.88254547 139 139 139
1.75877893 2.09022832 42.47571182 176 176 176
1.27618527 1.52377403 43.02097702 170 170 170
2.06183195 2.39318371 42.08538818 176 176 176
1.38249719 1.62397718 42.90969849 182 182 182
1.72023404 1.98878241 42.52820587 170 170 170
2.12879086 2.43678665 41.99739838 177 177 177
1.86329997 2.12960386 42.35253906 173 173 173
1.20865369 1.40595281 43.08737564 173 173 173
1.92999029 2.18887329 42.26823425 174 174 174
2.19943094 2.46496892 41.90576935 173 173 173
1.46814013 1.67226446 42.81838989 175 175 175
1.99750006 2.24078965 42.18243408 177 177 177
1.54875481 1.75235319 42.72967911 184 184 184
1.62718225 1.82785785 42.64030457 175 175 175
1.82694507 2.02608657 42.40273285 171 171 171
1.05316484 1.20454049 43.24045181 167 167 167
2.06871748 2.27335572 42.09316635 178 178 178
1.70031583 1.87543070 42.55671692 175 175 175
1.35750806 1.51061690 42.93591690 171 171 171
2.13732910 2.31881833 42.00456619 188 188 188
1.12718308 1.25946224 43.16397095 176 176 176
2.26965356 2.43112731 41.81649017 153 153 153
1.78819478 1.92423236 42.45526123 174 174 174
1.93335235 2.07054710 42.27618408 175 175 175
2.20812464 2.34665132 41.91394424 185 185 185
1.29219449 1.40786159 43.00176239 167 167 167
2.00116897 2.12276220 42.19190216 177 177 177
1.44899988 1.55568635 42.83927917 180 180 180
1.54495645 1.63320720 42.73607254 170 170 170
1.62378478 1.70924675 42.64839172 180 180 180
2.07297873 2.15412092 42.10258484 176 176 176
1.20928383 1.28594172 43.08229446 176 176 176
1.89832437 1.96893609 42.32578278 180 180 180
2.14095688 2.20087433 42.01572037 176 176 176
1.69681728 1.75723183 42.56639862 178 178 178
1.76772428 1.80952132 42.48417664 173 173 173
2.28229213 2.31232810 41.82706451 182 182 182
2.21281886 2.22676849 41.92469406 180 180 180
1.85839927 1.86758399 42.37824631 177 177 177
1.99996662 2.00377393 42.20397949 176 176 176
1.37383616 1.39486015 42.91679382 170 170 170
1.52611554 1.51830781 42.75718307 175 175 175
2.07402015 2.03585076 42.11331177 173 173 173
1.29265738 1.28958547 42.99726868 173 173 173
1.45068002 1.43733048 42.83732605 176 176 176
2.14233470 2.08256102 42.02724457 176 176 176
1.62018836 1.59101593 42.65476990 168 168 168
1.15340304 1.14758384 43.13534546 174 174 174
1.96471667 1.90150857 42.25383759 178 178 178
2.28714228 2.19418526 41.83752441 183 183 183
1.69327748 1.63915825 42.57401276 176 176 176
2.21462560 2.10732627 41.93621063 183 183 183
1.76456535 1.69158161 42.49317169 173 173 173
1.83897817 1.75388563 42.40709686 178 178 178
1.92563522 1.80215788 42.30525970 184 184 184
2.05833507 1.92014301 42.14252472 186 186 186
2.35755730 2.18698955 41.74097824 144 144 144
1.23572862 1.17449057 43.05080795 171 171 171
2.13855171 1.96455407 42.04292297 180 180 180
1.37508965 1.27637339 42.91135406 176 176 176
1.60047162 1.47447515 42.67596817 168 168 168
2.28921604 2.07638431 41.84873199 180 180 180
1.52803147 1.39984310 42.75426483 180 180 180
2.21195364 1.98805583 41.95293045 182 182 182
2.02197790 1.81748068 42.19219208 180 180 180
1.68462110 1.51964879 42.58475113 180 180 180
1.45440996 1.31919825 42.83058167 173 173 173
1.75941336 1.57181013 42.50171280 167 167 167
1.83461952 1.63374674 42.41599274 186 186 186
1.90484393 1.68717194 42.33358002 177 177 177
2.36414433 2.06924987 41.75613403 180 180 180
1.31914723 1.17824793 42.96538162 183 183 183
2.12258244 1.85062313 42.07137299 176 176 176
1.98173308 1.71799552 42.24365234 177 177 177
2.28663373 1.95829892 41.86368942 178 178 178
2.19570994 1.87412584 41.98105240 188 188 188
2.08566904 1.74686062 42.12042236 173 173 173
1.60278082 1.35562515 42.67275238 174 174 174
2.36151075 1.94996226 41.77158356 178 178 178
1.67775691 1.40131855 42.59175110 170 170 170
1.53195965 1.28122401 42.74679184 176 176 176
1.75036776 1.45305943 42.51213837 173 173 173
1.82906187 1.51495671 42.42412186 185 185 185
1.43842268 1.20229256 42.84305573 176 176 176
1.90044415 1.56767905 42.34259796 173 173 173
2.26974368 1.84435391 41.89328766 172 172 172
2.17477894 1.76081312 42.01391220 180 180 180
1.97639608 1.60006988 42.25483704 178 178 178
2.04859352 1.64571619 42.17012405 185 185 185
1.38440549 1.10865724 42.89440536 180 180 180
2.34520555 1.83459055 41.80178833 177 177 177
2.13828349 1.65848351 42.06192017 174 174 174
2.24851847 1.73006272 41.92660141 173 173 173
1.66495585 1.28251076 42.60333252 175 175 175
1.82023168 1.39642930 42.43433380 176 176 176
1.89460957 1.44926620 42.35005188 181 181 181
1.74318397 1.33497846 42.51879120 178 178 178
1.51408815 1.16320956 42.76058197 170 170 170
1.59702754 1.21354508 42.67473221 177 177 177
1.97063375 1.48175573 42.26383209 179 179 179
2.04289126 1.52760208 42.17929840 184 184 184
2.32484865 1.72263181 41.83454514 179 179 179
2.21262980 1.62627697 41.97495651 185 185 185
2.11881256 1.54321611 42.08941650 181 181 181
1.46053886 1.06808805 42.81294250 183 183 183
2.28829193 1.61995602 41.88341904 176 176 176
1.88518167 1.33143222 42.35955429 172 172 172
1.81302881 1.27829528 42.44046402 180 180 180
1.73033822 1.21594763 42.53008270 175 175 175
1.96120095 1.36424220 42.27474594 174 174 174
2.03418183 1.40959299 42.19046402 173 173 173
2.19385767 1.51208341 42.00131226 173 173 173
1.58101118 1.09675348 42.68640137 170 170 170
1.66227353 1.14750600 42.60125732 173 173 173
2.11259913 1.42484224 42.09928513 182 182 182
2.27008271 1.50398052 41.91046906 185 185 185
1.87817585 1.21269059 42.36574173 172 172 172
1.79952180 1.16034067 42.45170593 177 177 177
2.02216816 1.29180253 42.20347977 178 178 178
2.18647861 1.39238632 42.01175690 186 186 186
1.73170280 1.09197617 42.52279663 173 173 173
1.95614219 1.22324789 42.27671051 180 180 180
2.09973454 1.30769670 42.11285782 178 178 178
1.64673245 1.02962101 42.61401367 165 165 165
2.26370311 1.38591945 41.92114258 188 188 188
2.17500544 1.27492702 42.02534866 177 177 177
1.86421549 1.09501636 42.37687683 182 182 182
2.06927705 1.19817889 42.14749908 171 171 171
1.94420898 1.10584831 42.28695679 176 176 176
