-1.23199880 -0.75751746 33.61823654 204 204 204
-0.54990029 -0.33502957 34.21930695 216 216 216
-0.68393230 -0.41728806 34.10056686 218 218 218
-1.37688160 -0.84364229 33.51275635 180 180 180
-0.39154878 -0.23610549 34.35908890 217 217 217
-1.14197195 -0.69694155 33.69731140 211 211 211
-0.91487026 -0.55614924 33.89627457 213 213 213
-0.34177735 -0.20411651 34.40133286 216 216 216
-1.31681669 -0.79972810 33.54107666 186 186 186
-0.72735810 -0.43524334 34.06110764 216 216 216
-0.64393544 -0.38424599 34.13414001 218 218 218
-1.05009341 -0.62974119 33.77525711 211 211 211
-0.77045125 -0.45450717 34.02162170 217 217 217
-0.95938033 -0.56363100 33.85427856 216 216 216
-1.18573844 -0.69785953 33.65428162 212 212 212
-0.60444999 -0.35130963 34.16803360 216 216 216
-1.27416992 -0.74592984 33.57467270 202 202 202
-1.41424644 -0.82652277 33.46570206 176 176 176
-0.81357527 -0.47293600 33.98206329 214 214 214
-1.09436071 -0.63338262 33.73283005 210 210 210
-1.35911906 -0.78666115 33.49840546 205 205 205
-0.85748398 -0.48656076 33.94138336 220 220 220
-0.45805657 -0.25703093 34.29630280 216 216 216
-1.00365055 -0.56752890 33.81141663 219 219 219
-1.22885537 -0.69601935 33.61056900 212 212 212
-0.51702893 -0.28931436 34.24357986 212 212 212
-1.31716394 -0.73864454 33.53124237 195 195 195
-1.13868856 -0.63601172 33.68988419 212 212 212
-1.45067310 -0.80705971 33.42037201 180 180 180
-0.90159905 -0.49622005 33.89976883 219 219 219
-1.39898980 -0.76720101 33.45524216 207 207 207
-1.04734612 -0.56859511 33.76831055 217 217 217
-1.18245041 -0.63685322 33.64679718 213 213 213
-1.27134240 -0.68509626 33.56758118 211 211 211
-1.35872591 -0.72613835 33.48779678 198 198 198
-0.94602931 -0.50370777 33.85772705 225 225 225
-0.71259415 -0.37574854 34.06561279 215 215 215
-1.48993373 -0.78874618 33.37599945 172 172 172
-1.09169197 -0.57241666 33.72541428 221 221 221
-0.75643879 -0.39455843 34.02548218 218 218 218
-0.79986066 -0.41328341 33.98619461 220 220 220
-1.43887866 -0.74695903 33.41260910 188 188 188
-1.22640383 -0.63500190 33.60334015 208 208 208
-1.31393468 -0.67752880 33.52407455 198 198 198
-0.58055031 -0.29670146 34.18236542 220 220 220
-0.98982537 -0.50781757 33.81493378 210 210 210
-0.67277867 -0.34275132 34.09933472 222 222 222
-0.31152430 -0.15559195 34.42343903 215 215 215
-0.84385151 -0.42690060 33.94518661 215 215 215
-1.13572192 -0.57466233 33.68249512 216 216 216
-1.39869273 -0.70610303 33.44519043 204 204 204
-1.52715862 -0.76706415 33.33201981 195 195 195
-0.88783741 -0.43644059 33.90336990 221 221 221
-0.63294202 -0.30985922 34.13278961 214 214 214
-1.03347421 -0.50819933 33.77170563 217 217 217
-0.42770693 -0.20822427 34.31817627 214 214 214
-1.26861095 -0.62422961 33.55995178 212 212 212
-1.47887957 -0.72843903 33.36990356 193 193 193
-1.35570645 -0.66468948 33.48043823 202 202 202
-1.17930233 -0.57578248 33.63932037 213 213 213
-0.93181926 -0.44402024 33.86126709 215 215 215
-1.07724178 -0.51287901 33.72892761 218 218 218
-1.43880308 -0.68640798 33.40247345 202 202 202
-1.56592512 -0.74559486 33.28908539 191 191 191
-0.49583593 -0.23275851 34.25419998 217 217 217
-0.37881973 -0.17605840 34.36104202 217 217 217
-1.31124437 -0.61640561 33.51632309 202 202 202
-1.22321546 -0.57364166 33.59601212 213 213 213
-1.51872432 -0.70648813 33.32732010 209 209 209
-1.39544666 -0.64506406 33.43750000 195 195 195
-0.54773080 -0.25082126 34.20686722 223 223 223
-0.97569346 -0.44775242 33.81832504 216 216 216
-1.12127531 -0.51466769 33.68629837 205 205 205
-0.74156445 -0.33501920 34.03007126 217 217 217
-0.78548783 -0.35370439 33.99002838 213 213 213
-1.47952294 -0.66754216 33.35952377 205 205 205
-1.60935962 -0.72647095 33.24546814 175 175 175
-0.27302447 -0.12006267 34.45541763 214 214 214
-1.35339618 -0.60384703 33.47332382 213 213 213
-1.26588070 -0.56338930 33.55224228 208 208 208
-0.82930291 -0.36729446 33.94930267 218 218 218
-1.16539359 -0.51578444 33.64330673 215 215 215
-1.01937664 -0.44821897 33.77515793 215 215 215
-1.55790353 -0.68452674 33.28483200 200 200 200
-1.43534195 -0.62507439 33.39529419 201 201 201
-0.87324095 -0.37675878 33.90738678 219 219 219
-0.70171225 -0.30194083 34.06359482 218 218 218
-1.06340659 -0.45318702 33.73261261 213 213 213
-1.65038908 -0.70471054 33.20347595 195 195 195
-1.20915580 -0.51403147 33.59993362 212 212 212
-1.51844108 -0.64541167 33.31725311 207 207 207
-1.30884516 -0.55531472 33.50843811 200 200 200
-0.60900193 -0.25519878 34.14727783 219 219 219
-0.91731828 -0.38435668 33.86543274 219 219 219
-1.39269364 -0.58414167 33.43048477 203 203 203
-1.59817517 -0.66598451 33.24200439 200 200 200
-1.10758078 -0.45483607 33.68957520 216 216 216
-1.47572672 -0.60661674 33.35226059 200 200 200
-0.66229409 -0.26913565 34.09743881 219 219 219
-0.96137589 -0.38827941 33.82251358 216 216 216
-1.25146937 -0.50370705 33.55631256 209 209 209
-0.22969036 -0.09078397 34.52426910 214 214 214
-1.35092998 -0.54264659 33.46511078 207 207 207
-1.68882143 -0.67922503 33.16178513 191 191 191
-1.55731905 -0.62382174 33.27491379 191 191 191
-0.46581766 -0.18410006 34.27661133 220 220 220
-1.15160024 -0.45598975 33.64669800 216 216 216
-1.43235862 -0.56400621 33.38824844 213 213 213
-1.63793135 -0.64439446 33.19943237 191 191 191
-1.00512433 -0.38841236 33.77941895 213 213 213
-1.51474345 -0.58460605 33.31026840 198 198 198
-0.77072471 -0.29431888 33.99466705 217 217 217
-1.29390347 -0.49585029 33.51251602 211 211 211
-1.19515908 -0.45441970 33.60326004 216 216 216
-0.81434625 -0.30772525 33.95343018 214 214 214
-1.73330259 -0.65804863 33.12178802 169 169 169
-1.59738874 -0.60473549 33.23219681 191 191 191
-1.39087546 -0.52338099 33.42221832 195 195 195
-1.04932261 -0.39338779 33.73711777 213 213 213
-0.52662569 -0.19406104 34.21793747 226 226 226
-0.85878438 -0.31730646 33.91199493 221 221 221
-1.47258103 -0.54547524 33.34556198 204 204 204
-0.34827316 -0.12743162 34.38320541 219 219 219
-1.67571354 -0.61888772 33.15813065 200 200 200
-0.57636833 -0.20932734 34.17198944 225 225 225
-1.09324980 -0.39504170 33.69370270 216 216 216
-1.55367887 -0.56258160 33.26814651 198 198 198
-1.33658564 -0.48312655 33.46942902 209 209 209
-0.90302914 -0.32473189 33.86983871 216 216 216
-0.41536537 -0.14814299 34.32015610 216 216 216
-0.73052657 -0.26102111 34.02796173 222 222 222
-1.23747432 -0.44364968 33.56019211 215 215 215
-1.63686717 -0.58310837 33.19019699 196 196 196
-1.77862811 -0.63191819 33.07853699 161 161 161
-1.43114257 -0.50329280 33.37928772 205 205 205
-1.13686204 -0.39636379 33.65060043 213 213 213
-1.71549034 -0.59947866 33.11560822 190 190 190
-0.94660121 -0.32870540 33.82673645 213 213 213
-1.51165545 -0.52352977 33.30328751 192 192 192
-1.28059328 -0.43591022 33.51639557 214 214 214
-1.59417844 -0.54330069 33.22548676 193 193 193
-0.63765305 -0.21452093 34.11130905 216 216 216
-1.37623191 -0.46372819 33.42620087 200 200 200
-1.18045187 -0.39452121 33.60716248 206 206 206
-0.99034595 -0.32899755 33.78377914 212 212 212
-1.67462337 -0.55794543 33.14879227 200 200 200
-0.69071364 -0.22794539 34.06203079 216 216 216
-1.47144842 -0.48481822 33.33578873 201 201 201
-1.75445795 -0.57553637 33.07314301 182 182 182
-1.03450048 -0.33391011 33.74134064 216 216 216
-1.55029464 -0.50150520 33.26082993 196 196 196
-1.32251823 -0.42352825 33.47269440 196 196 196
-1.63355827 -0.52189434 33.18297577 195 195 195
-1.79768527 -0.57214034 33.02948380 180 180 180
-0.79631245 -0.24922161 33.96191788 212 212 212
-1.22304869 -0.38367298 33.56428909 212 212 212
-1.71425188 -0.53869164 33.10614014 191 191 191
-1.41594028 -0.44339252 33.38373184 200 200 200
-1.07823157 -0.33578798 33.69831467 215 215 215
-0.84029037 -0.25932530 33.92002869 218 218 218
-1.51103187 -0.46287954 33.29349136 195 195 195
-1.59079504 -0.48242867 33.21872711 199 199 199
-0.88431793 -0.26666862 33.87772369 215 215 215
-1.12218404 -0.33702457 33.65546036 218 218 218
-0.30945250 -0.09191553 34.41489029 218 218 218
-1.26598322 -0.37650371 33.52051926 214 214 214
-1.67137253 -0.49706697 33.14148331 178 178 178
-1.36250603 -0.40392235 33.42994308 203 203 203
-0.49613366 -0.14549896 34.23988724 221 221 221
-1.76837146 -0.52055943 33.04975891 183 183 183
-1.83012688 -0.53635746 32.99139404 176 176 176
-0.92827952 -0.27077839 33.83491516 212 212 212
-1.45662844 -0.42536372 33.34049606 212 212 212
-1.16605258 -0.33487973 33.61206436 213 213 213
-0.75645494 -0.21601075 33.99531937 223 223 223
-1.55045736 -0.44048694 33.25087357 198 198 198
-1.63003385 -0.46093798 33.17568970 193 193 193
-0.60505974 -0.16857195 34.13621902 218 218 218
-1.72883391 -0.48387712 33.08256912 192 192 192
-0.97260004 -0.27078924 33.79206848 214 214 214
-1.30774128 -0.36414069 33.47708893 212 212 212
-0.55530375 -0.15273993 34.18288803 225 225 225
-0.45335001 -0.12407416 34.27825928 215 215 215
-1.40195131 -0.38339370 33.38740158 199 199 199
-1.01626360 -0.27582884 33.74926758 213 213 213
-1.49597180 -0.40365386 33.29839325 209 209 209
-1.80201375 -0.48535857 33.01136017 185 185 185
-1.20829594 -0.32402125 33.56860733 220 220 220
-0.24772529 -0.06613684 34.47111511 218 218 218
-1.86124599 -0.49854487 32.95383835 178 178 178
-1.59089386 -0.42196208 33.20807266 199 199 199
-1.69026220 -0.44557002 33.11397934 191 191 191
-1.06021607 -0.27756080 33.70652771 219 219 219
-0.66669929 -0.17315207 34.07659531 225 225 225
-0.38483554 -0.09969728 34.34243393 219 219 219
-0.71702784 -0.18317789 34.02921677 221 221 221
-1.34721804 -0.34404328 33.43445969 205 205 205
-1.76272655 -0.45010856 33.04395294 193 193 193
-1.25114071 -0.31710553 33.52526855 211 211 211
-1.44219697 -0.36523971 33.34447479 199 199 199
-1.10393298 -0.27894235 33.66335297 216 216 216
-1.65090728 -0.41106883 33.14629364 199 199 199
-1.53460920 -0.38105470 33.25648117 201 201 201
-0.81965017 -0.20198283 33.93057632 221 221 221
-1.83315802 -0.44761306 32.97373581 184 184 184
-0.86367208 -0.20996410 33.88861847 216 216 216
-1.89131987 -0.45819113 32.91814423 189 189 189
-1.14758933 -0.27664256 33.62017441 218 218 218
-1.72478330 -0.41259187 33.07456589 194 194 194
-0.90784824 -0.21399808 33.84609985 217 217 217
-1.29251051 -0.30458775 33.48170853 213 213 213
-1.38687754 -0.32353097 33.39229202 213 213 213
-1.48161089 -0.34392178 33.30246735 201 201 201
-1.61311018 -0.37352863 33.17760468 204 204 204
-1.79415214 -0.41273105 33.00665283 200 200 200
-0.95147443 -0.21395700 33.80284119 218 218 218
-1.68518543 -0.37825668 33.10705948 185 185 185
-1.18994546 -0.26597047 33.57677841 221 221 221
-1.57038176 -0.35136384 33.21606445 189 189 189
-0.99587488 -0.21908590 33.76046371 214 214 214
-1.86323738 -0.40694958 32.93788528 176 176 176
-0.78018284 -0.16891558 33.96400833 219 219 219
-1.91990650 -0.41674095 32.88313293 173 173 173
-1.42734909 -0.30584008 33.34960938 212 212 212
-1.33254242 -0.28457284 33.43913269 211 211 211
-1.75616562 -0.37487844 33.03711700 194 194 194
-1.03946114 -0.22056730 33.71737671 214 214 214
-1.52037740 -0.32149705 33.26054382 206 206 206
-1.23322546 -0.25903347 33.53329849 212 212 212
-1.64753902 -0.34080237 33.13795853 194 194 194
-1.08321297 -0.22203173 33.67444611 218 218 218
-1.82316983 -0.37196460 32.97017670 178 178 178
-0.63392210 -0.12740286 34.10101700 218 218 218
-0.52494091 -0.10416015 34.20491791 230 230 230
-1.71611452 -0.34001273 33.07029343 184 184 184
-1.60175002 -0.31306422 33.17887115 199 199 199
-1.12734926 -0.21976165 33.63101959 219 219 219
-1.46679783 -0.28403494 33.30728531 206 206 206
-1.95360112 -0.37787548 32.84779358 120 120 120
-1.27508044 -0.24586034 33.48976898 216 216 216
-1.89177167 -0.36520380 32.90264511 175 175 175
-1.37241352 -0.26396611 33.39686203 210 210 210
-0.58417958 -0.11186460 34.14728928 221 221 221
-1.55625832 -0.29171449 33.21996307 195 195 195
-1.78560448 -0.33431074 33.00141525 187 187 187
-0.69230777 -0.12843798 34.04334641 214 214 214
-0.34606948 -0.06429408 34.37408447 216 216 216
-0.74037313 -0.13591635 33.99781418 213 213 213
-0.84202731 -0.15346919 33.90050507 218 218 218
-1.67825341 -0.30191591 33.10177994 191 191 191
-1.16972113 -0.20884697 33.58744812 219 219 219
-0.42257294 -0.07568895 34.30044174 221 221 221
-0.88612527 -0.15762682 33.85783005 218 218 218
-1.85158467 -0.32977286 32.93585587 180 180 180
-2.00506687 -0.35098174 32.81272507 122 122 122
-1.41245854 -0.24567947 33.35402679 207 207 207
-1.50540328 -0.26188543 33.26491547 202 202 202
-1.31506693 -0.22628561 33.44701767 216 216 216
-1.74572754 -0.29998881 33.03435898 185 185 185
-0.48216724 -0.08273440 34.24327469 229 229 229
-1.63551652 -0.27920449 33.14004898 197 197 197
-0.92967671 -0.15780428 33.81468582 213 213 213
-1.92305398 -0.32679522 32.86508179 178 178 178
-0.97349042 -0.16290383 33.77208710 216 216 216
-1.21252561 -0.20220146 33.54359436 222 222 222
-1.01775241 -0.16442876 33.72928619 224 224 224
-1.81353927 -0.29213673 32.96618271 185 185 185
-1.58734679 -0.25333589 33.18302536 188 188 188
-1.06142592 -0.16574453 33.68628693 217 217 217
-1.96315145 -0.30680901 32.82212830 178 178 178
-1.88342988 -0.29235408 32.89831924 192 192 192
-1.45240903 -0.22434504 33.31126785 210 210 210
-1.70751476 -0.26149553 33.06580353 189 189 189
-1.35470772 -0.20569120 33.40441132 212 212 212
-1.25407410 -0.18918385 33.50027466 210 210 210
-1.54126310 -0.23203410 33.22469330 206 206 206
-0.80238312 -0.12006492 33.93421936 220 220 220
-1.10475671 -0.16376469 33.64291763 221 221 221
-2.02952743 -0.30106455 32.78085709 133 133 133
-1.77414644 -0.25799438 32.99991226 185 185 185
-1.66493320 -0.23881698 33.10423660 195 195 195
-1.84525537 -0.25506613 32.92889404 188 188 188
-1.92087984 -0.26553795 32.85701752 181 181 181
-0.21988235 -0.03122178 34.51358795 209 209 209
-1.49141359 -0.20228390 33.26879883 192 192 192
-1.62059164 -0.21934828 33.14396667 195 195 195
-1.39480340 -0.18692319 33.36152267 203 203 203
-1.14732432 -0.15306224 33.59968948 223 223 223
-1.29413080 -0.16923104 33.45792770 206 206 206
-0.28430402 -0.03816243 34.43039703 218 218 218
-1.98590004 -0.25798643 32.79237366 183 183 183
-1.73619092 -0.22002420 33.03040314 190 190 190
-0.65980184 -0.08261356 34.06789017 226 226 226
-1.57244229 -0.19356243 33.18793488 210 210 210
-1.19025254 -0.14614207 33.55598831 210 210 210
-1.80574691 -0.22114019 32.96241379 185 185 185
-1.88279188 -0.22839859 32.88786316 180 180 180
-0.86217034 -0.10297421 33.87208557 216 216 216
-2.06153822 -0.24506792 32.74605942 136 136 136
-1.69312429 -0.19676955 33.06909180 189 189 189
-1.43446553 -0.16618545 33.31858826 195 195 195
-0.61312449 -0.07063938 34.11233902 219 219 219
-0.76238066 -0.08725125 33.96747208 224 224 224
-0.90582538 -0.10289307 33.82879639 207 207 207
-1.94684231 -0.22069810 32.82380295 180 180 180
-0.55385137 -0.06328914 34.16926575 221 221 221
-0.95038468 -0.10765349 33.78605652 216 216 216
-0.71596313 -0.08117654 34.01197433 221 221 221
-1.52687013 -0.17224459 33.22845459 196 196 196
-1.33351552 -0.14878580 33.41559982 211 211 211
-0.99451983 -0.10932084 33.74309158 216 216 216
-1.23241937 -0.13310830 33.51260376 214 214 214
-1.64991963 -0.17811349 33.10877609 195 195 195
-1.03840327 -0.11030409 33.70015335 214 214 214
-1.84268451 -0.19426203 32.92079544 170 170 170
-2.01130748 -0.21204534 32.75903702 175 175 175
-1.76852322 -0.18298662 32.99301910 200 200 200
-1.08210433 -0.10848868 33.65670395 219 219 219
-1.60611808 -0.15993512 33.14894104 193 193 193
-0.38375741 -0.03918312 34.33266449 216 216 216
-1.47377872 -0.14397256 33.27666855 206 206 206
-1.90842342 -0.18338543 32.85472488 178 178 178
-1.37352288 -0.13017502 33.37286377 212 212 212
-1.72539663 -0.15968022 33.03129578 195 195 195
-2.08404088 -0.19285099 32.71775055 150 150 150
-1.97238064 -0.17545719 32.79096222 176 176 176
-1.27205837 -0.11290640 33.47035599 218 218 218
-1.12400901 -0.09768195 33.61309814 218 218 218
-1.80566120 -0.15607029 32.95176315 191 191 191
-1.55759382 -0.13357177 33.19191742 193 193 193
-0.82260400 -0.06964080 33.90578079 218 218 218
-1.67864358 -0.13732451 33.07287598 182 182 182
-1.86882627 -0.14930120 32.88819122 188 188 188
-0.51109058 -0.04172074 34.20795441 224 224 224
-2.03296256 -0.16113348 32.73047256 173 173 173
-1.16720653 -0.09098648 33.56962967 213 213 213
-1.41308200 -0.10958192 33.33039474 209 209 209
-1.50926781 -0.11353393 33.23628616 203 203 203
-0.45120543 -0.03438169 34.26531601 216 216 216
-1.63479173 -0.11857023 33.11339569 201 201 201
-1.93366063 -0.13699113 32.82258224 180 180 180
-1.31124461 -0.09268776 33.42756271 210 210 210
-1.75734663 -0.12239531 32.99324417 191 191 191
-2.09534287 -0.13638671 32.69515991 152 152 152
-1.20862651 -0.07811088 33.52626801 215 215 215
-1.59142101 -0.10008878 33.15300369 191 191 191
-1.99295318 -0.12466762 32.76249695 184 184 184
-1.45202792 -0.08769795 33.28839874 203 203 203
-1.83042920 -0.11038294 32.91900635 184 184 184
-1.71113086 -0.09993935 33.03553772 185 185 185
-0.96881247 -0.05574073 33.75911713 215 215 215
-0.87927920 -0.04999181 33.84640884 223 223 223
-1.01278555 -0.05700297 33.71635437 214 214 214
-0.92476189 -0.05106017 33.80179214 216 216 216
-1.35198247 -0.07404689 33.38495636 201 201 201
-1.89407408 -0.10343175 32.85536575 176 176 176
-1.05617237 -0.05522602 33.67289352 219 219 219
-2.04268026 -0.10410986 32.71011353 173 173 173
-0.68339145 -0.03533921 34.03663254 225 225 225
-1.54003286 -0.07481759 33.19900131 189 189 189
-1.78872836 -0.08451357 32.95626450 194 194 194
-1.66399956 -0.07779047 33.07787704 185 185 185
-0.78285176 -0.03682443 33.93925095 214 214 214
-1.24801910 -0.05772014 33.48384094 207 207 207
-1.95462763 -0.08702906 32.79297256 171 171 171
-0.73829138 -0.03249698 33.98198318 219 219 219
-1.09869850 -0.04409174 33.62957382 217 217 217
-0.63863784 -0.02598543 34.07879257 224 224 224
-1.48783076 -0.05713177 33.24763489 200 200 200
-1.39183962 -0.05315160 33.34291840 198 198 198
-2.10807705 -0.08006401 32.67412949 158 158 158
-1.61980295 -0.05841412 33.11803055 195 195 195
-1.74223828 -0.06276063 32.99764252 188 188 188
-0.58252138 -0.02192975 34.13422394 228 228 228
-1.85643303 -0.06524612 32.88650131 190 190 190
-2.00376606 -0.06756068 32.74186325 180 180 180
-1.14149141 -0.03764643 33.58611679 216 216 216
-1.28748429 -0.03721015 33.44146729 213 213 213
-1.91506350 -0.05307373 32.82692337 188 188 188
-0.32102594 -0.01055115 34.38976288 221 221 221
-1.57457149 -0.04131495 33.16014481 200 200 200
-1.69549060 -0.04050551 33.04020691 202 202 202
-2.05712438 -0.04830691 32.68844223 176 176 176
-1.43125057 -0.03111368 33.30030823 208 208 208
-1.81421483 -0.03912987 32.92294693 195 195 195
-1.18313527 -0.02454973 33.54260635 222 222 222
-0.83964461 -0.01683080 33.87945938 218 218 218
-1.96596611 -0.02992058 32.77225494 171 171 171
-1.32765043 -0.01901441 33.39881516 212 212 212
-1.51892602 -0.01822801 33.21117401 208 208 208
-1.77053964 -0.02042441 32.96272278 188 188 188
-0.24502045 -0.00512624 34.46397018 215 215 215
-1.64933813 -0.01807833 33.08235168 195 195 195
-2.11800718 -0.01812929 32.65493774 158 158 158
-1.87703431 -0.01488204 32.85730362 178 178 178
-2.01734829 -0.01204531 32.71923447 167 167 167
-0.98667347 -0.00358167 33.73226547 216 216 216
-1.22258770 -0.00397170 33.50015259 216 216 216
-1.72734928 -0.00267394 33.00257874 187 187 187
-1.03033626 -0.00197080 33.68916702 213 213 213
-1.46630061 -0.00072299 33.25981903 205 205 205
-1.60283911 0.00042589 33.12472534 194 194 194
-1.36777186 0.00166445 33.35648346 207 207 207
-1.92618954 0.00363572 32.80514526 176 176 176
-0.53954834 -0.00050772 34.17251968 225 225 225
-0.94299895 0.00120018 33.77504730 218 218 218
-0.89812493 0.00153031 33.81890106 218 218 218
-2.06179762 0.01116078 32.67360306 177 177 177
-1.83462512 0.01148852 32.89387131 181 181 181
-0.41281602 0.00155055 34.29713821 227 227 227
-1.07222259 0.00916158 33.64564896 205 205 205
-1.55301809 0.01501266 33.17184067 202 202 202
-1.68126118 0.01902939 33.04504013 200 200 200
-1.98001873 0.02611421 32.74958038 183 183 183
-1.26201022 0.01642033 33.45757675 215 215 215
-1.11560142 0.01558982 33.60228348 220 220 220
-1.79136157 0.02985523 32.93375015 176 176 176
-1.40731609 0.02362583 33.31431580 206 206 206
-0.48010844 0.00650661 34.22978210 222 222 222
-2.11501551 0.04372415 32.64400101 165 165 165
-0.70547652 0.01331811 34.00646973 225 225 225
-0.79993391 0.01608976 33.91341782 216 216 216
-1.88856542 0.04210269 32.83618927 183 183 183
-2.02201891 0.04765388 32.70505905 190 190 190
-1.63295329 0.04082322 33.08835220 195 195 195
-1.15766060 0.02895594 33.55899811 221 221 221
-1.49681127 0.03802452 33.22292709 198 198 198
-1.30225563 0.03471230 33.41455460 209 209 209
-1.74794304 0.04812270 32.97456741 191 191 191
-0.75571114 0.02036382 33.95614624 221 221 221
-1.93944287 0.05917912 32.78232574 169 169 169
-2.06053734 0.07210682 32.66339111 183 183 183
-0.66162884 0.02220698 34.04861069 222 222 222
-1.58137953 0.05678351 33.13662338 194 194 194
-1.84596550 0.06848658 32.87318420 178 178 178
-1.44252884 0.05404170 33.27406693 203 203 203
-1.70415151 0.06673358 33.01389694 190 190 190
-0.60823929 0.02265703 34.10091400 233 233 233
-1.34157503 0.05521305 33.37217712 212 212 212
-0.85848689 0.03492753 33.85222626 217 217 217
-1.19671738 0.04974032 33.51653290 216 216 216
-2.15850902 0.09196842 32.61766434 155 155 155
-1.98402190 0.08571251 32.73484802 173 173 173
-1.53095818 0.07153718 33.18400574 195 195 195
-0.35869932 0.01459442 34.34830475 220 220 220
-1.80236197 0.08675732 32.91368103 189 189 189
-1.66039360 0.08343817 33.05386734 199 199 199
-1.00329185 0.05009912 33.70734406 221 221 221
-1.90257144 0.09779849 32.81324768 183 183 183
-2.10281610 0.11098969 32.63835907 158 158 158
-2.02216244 0.10995805 32.69332504 165 165 165
-1.38093460 0.07716648 33.33062363 210 210 210
-1.23650885 0.06966539 33.47415543 213 213 213
-0.95934892 0.05469787 33.74985504 222 222 222
-1.04544377 0.06120575 33.66411972 217 217 217
-1.75870407 0.10461941 32.95330811 182 182 182
-1.61084652 0.09707909 33.10062027 194 194 194
-0.91537231 0.05455667 33.79312515 220 220 220
-1.94246876 0.11923195 32.77000809 173 173 173
-1.08828199 0.06749111 33.62047195 218 218 218
-1.47325385 0.09281413 33.23764420 211 211 211
-2.71701336 0.18219945 31.06775475 173 173 173
-1.86064363 0.12392636 32.84976578 180 180 180
-1.27703810 0.08816282 33.43119049 178 178 178
-2.05558777 0.14637141 32.65510941 176 176 176
-1.13017464 0.08076391 33.57715225 218 218 218
-1.71479297 0.12384252 32.99380875 184 184 184
-1.55924058 0.11291499 33.14802933 179 179 179
-1.98240435 0.14655721 32.72648621 176 176 176
-1.41671574 0.10765626 33.29022980 208 208 208
-1.81709397 0.14128132 32.88959885 176 176 176
-0.56550378 0.04414111 34.13930130 241 241 241
-1.90504968 0.15767668 32.80030823 174 174 174
-1.31693828 0.10892631 33.38865280 206 206 206
-2.11303210 0.17679298 32.62550735 148 148 148
-1.50687397 0.12645441 33.19840240 197 197 197
-1.67036450 0.14088055 33.03454971 181 181 181
-0.81864285 0.06768954 33.88595963 218 218 218
-1.16910017 0.10207441 33.53480911 213 213 213
-2.01596761 0.18099253 32.68818283 172 172 172
-1.77344525 0.15957287 32.92984772 186 186 186
-0.28138798 0.02264502 34.42292786 221 221 221
-1.62615693 0.15147753 33.07636642 195 195 195
-1.94405007 0.18272009 32.75803757 184 184 184
-0.72282493 0.06627946 33.98063278 225 225 225
-0.77474302 0.07178744 33.92861938 223 223 223
-1.35537207 0.13094828 33.34608841 204 204 204
-1.86217093 0.18424250 32.83786011 182 182 182
-0.50891119 0.04786500 34.19460678 225 225 225
-1.20896220 0.12134723 33.49239349 217 217 217
-2.05407834 0.20806783 32.64849472 173 173 173
-1.44750500 0.14628746 33.25301743 201 201 201
-0.87608957 0.08775841 33.82656479 217 217 217
-0.44175687 0.04244277 34.26177979 216 216 216
-1.58167911 0.16201997 33.11849594 188 188 188
-1.73016644 0.17804903 32.96964645 185 185 185
-1.01261425 0.10762174 33.68782806 212 212 212
-1.53592956 0.16785508 33.16308975 202 202 202
-1.97668993 0.21804383 32.72000122 176 176 176
-1.81787920 0.20163107 32.87810516 173 173 173
-1.05836463 0.11679256 33.64143372 212 212 212
-1.24926567 0.14004122 33.45003891 210 210 210
-2.10639262 0.23982100 32.62283707 160 160 160
-0.67870015 0.07517911 34.02261353 230 230 230
-1.90305126 0.21852785 32.79228210 184 184 184
-1.68614817 0.19489077 33.00988388 191 191 191
-0.63085604 0.07082270 34.07029724 231 231 231
-1.39146340 0.16125633 33.30645752 206 206 206
-0.93234760 0.10749135 33.76705551 213 213 213
-1.10018861 0.12999457 33.59827042 216 216 216
-2.01403069 0.24450207 32.67916489 168 168 168
-1.48115504 0.17994459 33.21437073 200 200 200
-1.77460146 0.22000031 32.91837311 181 181 181
-1.28867447 0.16027056 33.40761948 211 211 211
-1.64186502 0.20555881 33.05206299 194 194 194
-1.93741572 0.25179285 32.75302124 174 174 174
-1.85967362 0.24496561 32.82925415 173 173 173
-1.13944113 0.15160967 33.55589676 215 215 215
-1.59765422 0.21597677 33.09347916 195 195 195
-2.05147171 0.28043392 32.64474869 165 165 165
-0.97071820 0.13210893 33.72581863 219 219 219
-1.32746160 0.18250193 33.36536407 210 210 210
-1.72966421 0.23876619 32.96002960 191 191 191
-1.42181325 0.19964002 33.26948547 198 198 198
-1.97510660 0.27968091 32.71134949 178 178 178
-1.55336058 0.22043385 33.13633347 188 188 188
-1.81498492 0.26249197 32.87029266 176 176 176
-1.17908621 0.17113203 33.51327133 215 215 215
-0.83630741 0.12047958 33.85991287 218 218 218
-1.89480972 0.27919891 32.78926086 176 176 176
-1.50902748 0.22221148 33.17971039 188 188 188
-2.10061312 0.31117642 32.62162018 157 157 157
-1.66654432 0.25244650 33.01987457 185 185 185
-0.38767961 0.05534313 34.31273270 234 234 234
-2.00879645 0.31426191 32.67321777 162 162 162
-1.21940315 0.18976064 33.47052765 212 212 212
-1.36281431 0.21250421 33.32510376 198 198 198
-1.77232480 0.28079605 32.91035461 177 177 177
-0.21715516 0.03005204 34.51490021 207 207 207
-0.89318174 0.14078571 33.80055237 216 216 216
-0.79217029 0.12460701 33.90257263 213 213 213
-1.02629530 0.16322768 33.66563416 216 216 216
-1.45571840 0.23363115 33.23094559 208 208 208
-0.60459930 0.09452040 34.13413239 164 164 164
-0.74200469 0.11757404 33.95290375 219 219 219
-1.93360138 0.31278741 32.74642181 172 172 172
-1.62177074 0.26326993 33.06214142 197 197 197
-1.84341300 0.30433607 32.83547974 183 183 183
-1.06777215 0.17643252 33.62244034 214 214 214
-1.25917709 0.21025477 33.42789841 213 213 213
-0.31997016 0.05006199 34.38048172 218 218 218
-1.70009351 0.28841469 32.98121262 187 187 187
-2.04957604 0.35106343 32.64429474 154 154 154
-1.57441461 0.27102891 33.10755157 187 187 187
-1.96826470 0.34564292 32.70731735 180 180 180
-0.53475761 0.09250037 34.16127014 238 238 238
-1.80022073 0.32290533 32.87545776 184 184 184
-1.52809799 0.27408180 33.15270615 192 192 192
-1.87736320 0.33754525 32.79652405 176 176 176
-1.10681427 0.19774243 33.57989120 218 218 218
-1.29780674 0.23255970 33.38569260 204 204 204
-1.39406025 0.25102708 33.28830338 198 198 198
-0.93160653 0.16816622 33.75795364 215 215 215
-1.73446715 0.31934440 32.94092178 174 174 174
-0.69770813 0.12652516 33.99477768 225 225 225
-0.47028533 0.08371408 34.22642517 230 230 230
-1.48333097 0.27603710 33.19626999 195 195 195
-1.64617836 0.30953857 33.02996826 183 183 183
-2.00133181 0.38100260 32.66962051 178 178 178
-1.14670968 0.21744074 33.53765106 216 216 216
-0.98378372 0.18759635 33.70312119 218 218 218
-1.91222537 0.36959514 32.75730515 168 168 168
-0.64849102 0.12381424 34.04474640 228 228 228
-1.33379006 0.26262528 33.34558487 210 210 210
-1.82949960 0.36442450 32.83877563 168 168 168
-1.59813643 0.31847826 33.07584381 192 192 192
-1.18713737 0.23617387 33.49478149 215 215 215
-1.42807806 0.28534198 33.24910355 201 201 201
-2.05284333 0.41493109 32.64433289 153 153 153
-1.76251853 0.36181834 32.90597153 181 181 181
-0.85411161 0.17357115 33.83466721 220 220 220
-1.67884505 0.34546563 32.99222565 193 193 193
-1.94756341 0.40269929 32.71862793 169 169 169
-1.54800045 0.32450905 33.12382507 186 186 186
-1.22696626 0.25667688 33.45183563 212 212 212
-1.86503625 0.39758679 32.79968262 189 189 189
-1.03403986 0.22140631 33.64792252 216 216 216
-1.50215364 0.32774693 33.16896439 195 195 195
-1.71380436 0.37644100 32.95190048 185 185 185
-1.98042369 0.43779585 32.68026733 173 173 173
-1.26603067 0.27919725 33.40987396 205 205 205
-1.36486864 0.30133870 33.30834579 197 197 197
-0.80914986 0.17761336 33.87651443 220 220 220
-1.79207051 0.40205103 32.86993408 183 183 183
-1.62289131 0.36475632 33.04362106 193 193 193
-0.60402501 0.13275947 34.08610535 253 253 253
-1.45551956 0.32791165 33.21449280 196 196 196
-1.90549970 0.43056160 32.75458145 170 170 170
-1.07325006 0.24241225 33.60531616 217 217 217
-0.75958788 0.17048815 33.92717743 225 225 225
-0.89240491 0.20149587 33.79153442 213 213 213
-2.03390813 0.47465193 32.65685272 154 154 154
-1.57238650 0.37184185 33.09265900 180 180 180
-1.11312151 0.26227522 33.56319809 221 221 221
-1.82711184 0.43460974 32.83054352 179 179 179
-1.30160654 0.30926999 33.36945343 212 212 212
-0.94531459 0.22360396 33.73508835 218 218 218
-1.39842045 0.33545378 33.26963806 190 190 190
-1.74236870 0.41904438 32.91609955 180 180 180
-1.93879437 0.46675506 32.71604156 169 169 169
-0.41647848 0.09632292 34.27731323 225 225 225
-1.65501451 0.40069988 33.00568390 183 183 183
-1.15357697 0.28093508 33.52031326 216 216 216
-1.86479318 0.46097225 32.78929520 172 172 172
-1.52191722 0.37856159 33.14023209 189 189 189
-0.99171376 0.24591175 33.68539429 216 216 216
-0.24180041 0.05566277 34.45636368 218 218 218
-0.55999023 0.13803962 34.12878799 255 255 255
-1.97895074 0.50151026 32.68461609 168 168 168
-1.19294488 0.30095965 33.47758484 216 216 216
-0.71521473 0.17942439 33.96909714 221 221 221
-1.69024968 0.43175399 32.96553040 185 185 185
-1.47457540 0.37962791 33.18736649 200 200 200
-1.77155650 0.45930150 32.88012314 173 173 173
-1.89769483 0.49670160 32.75174332 177 177 177
-1.33247960 0.34784746 33.33246231 201 201 201
-1.59711444 0.41838172 33.06005859 186 186 186
-1.23198736 0.32351789 33.43527985 215 215 215
-1.42630339 0.37795496 33.23511124 186 186 186
-0.49650905 0.12825401 34.19335175 226 226 226
-0.66772336 0.17525430 34.01739502 238 238 238
-1.82504594 0.49548802 32.82209778 171 171 171
-1.03577888 0.28152657 33.63572311 212 212 212
-0.34916103 0.09076519 34.34513092 218 218 218
-1.93168736 0.52999926 32.71207047 160 160 160
-1.54645836 0.42527473 33.10820389 180 180 180
-1.71773434 0.47423857 32.93075562 180 180 180
-0.85171610 0.23418398 33.82547379 213 213 213
-1.62979770 0.45447573 33.02172089 186 186 186
-1.26799095 0.35369942 33.39502335 209 209 209
-1.36612022 0.38196087 33.29392624 200 200 200
-1.07725990 0.30245051 33.59283447 219 219 219
-1.85819650 0.53190535 32.78376770 165 165 165
-0.90554929 0.25683141 33.76842499 211 211 211
-1.49527836 0.43091020 33.15862656 196 196 196
-1.97829127 0.57154042 32.69393539 149 149 149
-1.11710060 0.32186314 33.54913712 210 210 210
-1.78132224 0.51696295 32.86149597 178 178 178
-1.66527069 0.48555285 32.98129272 191 191 191
-0.77505451 0.22329564 33.89986420 219 219 219
-1.15714359 0.34136516 33.50684738 215 215 215
-0.95334679 0.28178129 33.71709442 218 218 218
-1.44519341 0.43001562 33.20785904 195 195 195
-1.89281428 0.56476271 32.74465179 173 173 173
-1.57140207 0.47167218 33.07680511 188 188 188
-0.62324619 0.18431617 34.05886078 231 231 231
-1.73682213 0.52594453 32.90339279 180 180 180
-1.29894781 0.39249265 33.35836792 213 213 213
-1.39390337 0.42437193 33.25934601 196 196 196
-1.19598854 0.36376745 33.46485138 210 210 210
-1.81439269 0.55592996 32.82332611 182 182 182
-0.99354225 0.30601382 33.67317963 218 218 218
-1.69255197 0.52868158 32.94666290 195 195 195
-1.93374884 0.60546082 32.72111893 152 152 152
-1.51980960 0.47755447 33.12638855 191 191 191
-1.60380638 0.50780326 33.03835678 180 180 180
-0.28033927 0.08326079 34.41367722 215 215 215
-0.44538566 0.13756177 34.24214172 228 228 228
-1.85103750 0.59290373 32.78202057 179 179 179
-1.23168647 0.39393255 33.42431259 198 198 198
-1.33216321 0.42653120 33.31934357 203 203 203
-0.73252785 0.23250404 33.94363403 224 224 224
-0.80948406 0.25839216 33.86314011 219 219 219
-1.76055825 0.57413429 32.87250519 187 187 187
-1.46580446 0.48061261 33.17952728 194 194 194
-1.63906527 0.53868556 32.99785614 185 185 185
-1.03951061 0.34130064 33.62226105 218 218 218
-0.57917154 0.18950085 34.10142899 231 231 231
-1.88530338 0.63499439 32.75077820 166 166 166
-1.08079910 0.36204645 33.57794189 212 212 212
-0.86569941 0.28928784 33.80239105 213 213 213
-1.41274321 0.47637668 33.23167801 188 188 188
-0.68456417 0.22799467 33.99105453 221 221 221
-1.71166182 0.58017057 32.91923523 174 174 174
-1.54429364 0.52384138 33.09430313 185 185 185
-1.80760479 0.61698759 32.81979752 176 176 176
-0.52175379 0.17388341 34.16073990 228 228 228
-1.12048411 0.38217062 33.53501511 214 214 214
-1.26224720 0.43285513 33.38747787 199 199 199
-1.36035252 0.46907198 33.28518677 200 200 200
-0.91352671 0.31508291 33.75070190 215 215 215
-1.66674125 0.58228189 32.96324158 188 188 188
-1.15960908 0.40477201 33.49292374 213 213 213
-1.49013019 0.52707249 33.14727402 185 185 185
-1.57641900 0.55996025 33.05635834 191 191 191
-1.83839869 0.65648556 32.78400421 176 176 176
-1.76294553 0.63461924 32.86064148 172 172 172
-0.95529675 0.34197560 33.70530319 215 215 215
-1.29586279 0.46686167 33.34898376 209 209 209
-0.37770894 0.13163896 34.30942917 218 218 218
-1.19560540 0.43453407 33.45284271 208 208 208
-1.61196721 0.59104782 33.01568604 183 183 183
-1.43276048 0.52708060 33.20348358 181 181 181
-0.99719954 0.36586550 33.65982056 212 212 212
-1.71725106 0.63921505 32.90369415 170 170 170
-0.76742500 0.28414658 33.90025711 218 218 218
-0.64042276 0.23726438 34.03292084 231 231 231
-1.79224098 0.67624450 32.82546234 174 174 174
-1.87236714 0.70770788 32.77461243 131 131 131
-1.37924266 0.52088094 33.25769806 202 202 202
-1.51474273 0.57384485 33.11499405 193 193 193
-1.67323577 0.64125359 32.94673157 176 176 176
-0.82340211 0.31347907 33.84008408 217 217 217
-1.32372177 0.50908923 33.31385803 193 193 193
-1.04385138 0.40081212 33.60782623 216 216 216
-1.22595918 0.47375485 33.41623306 212 212 212
-1.08366692 0.42203459 33.56507492 206 206 206
-1.45772219 0.57360291 33.17119598 195 195 195
-1.54697227 0.61012357 33.07648849 180 180 180
-1.62908340 0.64403832 32.98925781 173 173 173
-1.73876750 0.68972075 32.87565613 179 179 179
-1.12317717 0.44411716 33.52298355 216 216 216
-0.47123593 0.18205562 34.20877075 228 228 228
-1.82156932 0.72674149 32.80638123 146 146 146
-0.87378168 0.34744203 33.78452682 215 215 215
-1.25945842 0.50751543 33.37750626 205 205 205
-1.58255970 0.64100152 33.03587723 189 189 189
-0.70166415 0.28100252 33.96528625 221 221 221
-1.39888406 0.57174581 33.22923279 200 200 200
-1.69211245 0.69349253 32.92028046 178 178 178
-1.15883636 0.47415337 33.48233795 206 206 206
-0.91549706 0.37529600 33.73860550 212 212 212
-1.76823258 0.73123217 32.84055710 175 175 175
-0.59647924 0.24241574 34.07572174 226 226 226
-1.34245658 0.56074840 33.28631210 191 191 191
-1.48202574 0.62034476 33.13903809 192 192 192
-0.30939466 0.12396450 34.37804031 220 220 220
-0.95866722 0.40168497 33.69169617 213 213 213
-1.64731812 0.69681048 32.96327972 178 178 178
-0.54082358 0.22541808 34.13338852 234 234 234
-1.00174391 0.42534190 33.64521027 218 218 218
-1.28700018 0.55005014 33.34273529 207 207 207
-1.18932068 0.51319367 33.44563675 213 213 213
-1.71429729 0.74376070 32.89143372 170 170 170
-1.51408315 0.65655833 33.10133743 198 198 198
-1.59997809 0.69418854 33.01005173 188 188 188
-1.42386854 0.61806953 33.19718552 186 186 186
-0.78145063 0.33904579 33.87675476 221 221 221
-0.40650231 0.17274822 34.27418137 224 224 224
-1.04631174 0.46090132 33.59526443 208 208 208
-1.54983938 0.68668473 33.06048584 180 180 180
-1.08547044 0.48224297 33.55317688 220 220 220
-0.73018950 0.32262745 33.93045044 218 218 218
-0.65756953 0.29025134 34.00727844 229 229 229
-1.66829991 0.74821746 32.93567276 177 177 177
-1.22270215 0.54735714 33.40715408 211 211 211
-1.36266720 0.61183923 33.25855637 200 200 200
-0.83133352 0.37157556 33.82199097 211 211 211
-0.21675542 0.09020546 34.50102615 207 207 207
-1.12121701 0.51192921 33.51278687 206 206 206
-1.44818795 0.66460210 33.16469955 186 186 186
-1.30669785 0.60141158 33.31505966 188 188 188
-1.61818945 0.74714178 32.98419571 178 178 178
-0.87566280 0.40761295 33.77293396 213 213 213
-0.49653435 0.22756623 34.17641830 228 228 228
-1.56752658 0.74013942 33.03542709 180 180 180
-1.68996668 0.79850274 32.90636826 181 181 181
-1.25071883 0.58996964 33.37189484 203 203 203
-1.47996008 0.70111424 33.12681580 186 186 186
-1.38740969 0.65807700 33.22602463 193 193 193
-0.91929328 0.43515602 33.72544098 220 220 220
-1.15159333 0.55102485 33.47651672 212 212 212
-0.96277416 0.46118268 33.67749023 213 213 213
-1.51605999 0.73111975 33.08680344 188 188 188
-1.00442171 0.48549771 33.63270569 215 215 215
-1.63947415 0.79851353 32.95669937 177 177 177
-0.61344141 0.29530829 34.04975128 220 220 220
-1.32620072 0.65276188 33.28684616 198 198 198
-1.18475246 0.58496124 33.43760681 199 199 199
-1.04831743 0.52129316 33.58329773 216 216 216
-1.41146851 0.70461982 33.19395065 188 188 188
-1.58579576 0.79323691 33.00926971 178 178 178
-0.68610245 0.34006795 33.97065735 221 221 221
-1.27049696 0.64165777 33.34426880 206 206 206
-0.78961509 0.39715898 33.85901260 215 215 215
-0.33877414 0.16507262 34.34296417 222 222 222
-0.55791342 0.27832294 34.10716629 222 222 222
-1.08404577 0.55082625 33.54273605 209 209 209
-1.53378379 0.78458726 33.06098557 183 183 183
-0.74445236 0.37761667 33.90699387 216 216 216
-1.44387841 0.74135315 33.15591049 181 181 181
-0.24069528 0.11631568 34.44708252 221 221 221
-0.43261370 0.21731669 34.24114609 221 221 221
-1.35110021 0.69914520 33.25424957 190 190 190
-1.21268332 0.62715626 33.40291595 206 206 206
-1.47965276 0.77139860 33.11596680 181 181 181
-0.83278948 0.43177044 33.81048584 213 213 213
-1.60627675 0.84423941 32.98179245 173 173 173
-1.11445308 0.58992845 33.50608063 212 212 212
-0.87892336 0.46722355 33.75889206 223 223 223
-1.28986263 0.69290388 33.31562424 186 186 186
-0.92349488 0.49478120 33.71058655 218 218 218
-1.55268931 0.83763105 33.03563690 173 173 173
-0.96587819 0.52131373 33.66470718 215 215 215
-1.37539756 0.74597085 33.22198486 183 183 183
-1.00568807 0.54566127 33.62101364 215 215 215
-1.14827597 0.62425011 33.46783829 213 213 213
-1.49750936 0.82485032 33.09122467 173 173 173
-0.64214760 0.34936315 34.01253128 226 226 226
-1.23248529 0.67898184 33.37509155 200 200 200
-1.40758550 0.78229684 33.18452835 188 188 188
-0.51435846 0.28031000 34.15045166 231 231 231
-1.04394281 0.58238250 33.57723999 210 210 210
-1.44391632 0.81233156 33.14448547 172 172 172
-1.31452012 0.73929882 33.28358459 188 188 188
-1.17610240 0.66664785 33.43241501 206 206 206
-0.70083135 0.39459294 33.94670105 215 215 215
-1.51596105 0.87779486 33.06541061 176 176 176
-1.07438278 0.62176353 33.54019547 220 220 220
-0.36728144 0.20614193 34.30744553 224 224 224
-0.79079103 0.45748127 33.84781265 208 208 208
-1.25160766 0.73006833 33.34709167 199 199 199
-0.57500553 0.33128017 34.08142471 223 223 223
-0.75165141 0.43616569 33.89003372 213 213 213
-1.33910286 0.78598499 33.25224304 191 191 191
-0.45795646 0.26293316 34.20858765 221 221 221
-0.83636385 0.49142939 33.79642487 213 213 213
-1.46199453 0.86590439 33.12024307 176 176 176
-1.10776150 0.65607315 33.50142288 213 213 213
-1.37094665 0.82234430 33.21392822 185 185 185
-0.88320053 0.52679354 33.74486160 216 216 216
-1.19494450 0.71809810 33.40446472 190 190 190
-0.92610884 0.55474460 33.69757843 219 219 219
-0.96728206 0.58175278 33.65294647 217 217 217
-1.40712297 0.85218233 33.17348862 184 184 184
-1.27644849 0.77646267 33.31525421 198 198 198
-1.00273550 0.61134040 33.61242676 211 211 211
-0.26992360 0.15684490 34.41153336 218 218 218
-1.13592374 0.69852650 33.46641922 208 208 208
-0.65690064 0.40397370 33.98859406 217 217 217
-1.03329504 0.65028578 33.57586670 218 218 218
-1.30097759 0.82295537 33.28309631 178 178 178
-1.21468914 0.76939923 33.37697220 190 190 190
-1.42521811 0.90570253 33.14932632 191 191 191
-1.46670234 0.93366182 33.11133194 166 166 166
-0.60069114 0.37665945 34.04880142 222 222 222
-0.53100860 0.33327129 34.12438202 224 224 224
-1.06632316 0.68439883 33.53670883 203 203 203
-1.33395553 0.85977906 33.24577332 187 187 187
-0.70809925 0.45315865 33.93003082 214 214 214
-1.37024605 0.88937771 33.20555496 186 186 186
-1.15488422 0.75024021 33.43898010 208 208 208
-0.79472530 0.51713437 33.83354950 213 213 213
-0.39328787 0.25072935 34.27429581 218 218 218
-1.23972058 0.81593984 33.34528351 195 195 195
-0.84041214 0.55108315 33.78283691 215 215 215
-0.75335050 0.49631298 33.87829971 220 220 220
-0.88631189 0.58665186 33.73161697 218 218 218
-1.09439504 0.72680485 33.50230408 213 213 213
-0.92730153 0.61496508 33.68585968 217 217 217
-0.96309245 0.64440322 33.64567947 214 214 214
-1.43614185 0.96828264 33.15624619 146 146 146
-0.47556570 0.31567913 34.18230438 225 225 225
-1.38501763 0.94466621 33.18201828 181 181 181
-1.26464689 0.86240125 33.31317520 183 183 183
-1.17510307 0.80159634 33.41103363 202 202 202
-0.99372375 0.68358195 33.60903168 208 208 208
-0.29874399 0.19773266 34.37600327 222 222 222
-1.32988346 0.92097962 33.24034500 180 180 180
-1.11359334 0.77864903 33.47515106 200 200 200
-1.02707386 0.71779490 33.57041550 207 207 207
-0.66359824 0.46253303 33.97171021 213 213 213
-1.19937325 0.84812528 33.37895966 187 187 187
-1.28731298 0.91163021 33.28377914 186 186 186
-0.61555272 0.43112364 34.02482986 221 221 221
-0.55655873 0.38915938 34.08992004 228 228 228
-1.37779152 0.99306965 33.21900558 169 169 169
-1.05484569 0.76018941 33.53562546 206 206 206
-0.41828677 0.29633495 34.24152374 229 229 229
-0.79826301 0.57697272 33.82010269 213 213 213
-0.84403497 0.61071366 33.76901245 213 213 213
-0.70971543 0.51339394 33.91808701 215 215 215
-1.22511554 0.89500713 33.34711075 184 184 184
-0.88732594 0.64691383 33.72010422 213 213 213
-1.13340938 0.82939106 33.44701767 194 194 194
-0.92336011 0.67663240 33.67987823 214 214 214
-0.75735283 0.55582219 33.86374664 215 215 215
-1.32040989 0.98037583 33.25478363 173 173 173
-0.22237605 0.15518788 34.49126816 211 211 211
-0.95378464 0.71567351 33.64347839 216 216 216
-1.15844691 0.87603003 33.41553116 183 183 183
-1.24730790 0.94406408 33.31751251 186 186 186
-0.32754624 0.23890844 34.34085464 227 227 227
-1.07404459 0.81190968 33.50823593 206 206 206
-0.98723209 0.74952567 33.60462952 213 213 213
-0.49243292 0.36870733 34.15633392 221 221 221
-1.28379238 1.00049186 33.30178833 133 133 133
-1.18389356 0.92255038 33.38337708 190 190 190
-1.01543701 0.79185325 33.57030487 207 207 207
-0.57174724 0.44354710 34.06605911 221 221 221
-1.09434426 0.86311722 33.48014832 193 193 193
-0.66536355 0.52276552 33.95947647 219 219 219
-0.62213707 0.48986924 34.00839996 222 222 222
-0.80236077 0.63657671 33.80579376 221 221 221
-0.84506887 0.67111874 33.75735855 215 215 215
-0.88324064 0.70815545 33.71411896 215 215 215
-1.20586789 0.97175533 33.35322571 185 185 185
-0.71374011 0.57296520 33.90357208 216 216 216
-1.11943865 0.91023248 33.44866943 198 198 198
-0.76099586 0.61561131 33.85016632 218 218 218
-1.24796176 1.01881707 33.35050964 130 130 130
-1.03389549 0.84357727 33.54277039 205 205 205
-0.43578351 0.34891820 34.21508026 221 221 221
-0.91370970 0.74746448 33.67757416 216 216 216
-0.51500553 0.41699162 34.12592316 219 219 219
-0.94724286 0.78159970 33.63843155 225 225 225
-0.35359374 0.28354806 34.30784988 221 221 221
-1.14476061 0.95623714 33.41692734 185 185 185
-0.97540796 0.82436335 33.60413361 210 210 210
-1.05418479 0.89457369 33.51486588 195 195 195
-1.18527210 1.00759828 33.39858627 151 151 151
-0.80339450 0.69687253 33.79471207 221 221 221
-1.07906199 0.94172543 33.48310089 198 198 198
-0.84119868 0.73226696 33.75171661 217 217 217
-0.66977900 0.58251476 33.94603729 217 217 217
-0.57798976 0.50236887 34.04940796 214 214 214
-0.23125666 0.19244598 34.44326782 217 217 217
-0.99432987 0.87643999 33.57645416 205 205 205
-1.14230072 1.01075864 33.44546890 155 155 155
-0.71735704 0.63268661 33.89017487 206 206 206
-0.87123597 0.77128464 33.71517563 210 210 210
-0.76388186 0.67552352 33.83699417 215 215 215
-0.62388372 0.54997838 33.99581528 216 216 216
-0.37870908 0.32910058 34.27533722 217 217 217
-0.90539002 0.80834186 33.67557526 213 213 213
-0.53031057 0.47130942 34.10177612 218 218 218
-0.45308304 0.40201664 34.18958282 218 218 218
-0.93324667 0.85067892 33.64068222 213 213 213
-1.01453912 0.92771250 33.54869080 209 209 209
-1.09314346 1.00160968 33.48840714 160 160 160
-1.04199564 0.97652298 33.51829910 196 196 196
-0.26014763 0.23335861 34.40786362 216 216 216
-0.95275980 0.90281850 33.61352539 206 206 206
-0.79869801 0.75773460 33.78859711 211 211 211
-0.67348164 0.64223635 33.93206787 223 223 223
-0.47562179 0.45046073 34.15928650 217 217 217
-0.82946271 0.79667962 33.75240326 210 210 210
-0.86293685 0.83230591 33.71317673 213 213 213
-0.72030687 0.69280511 33.87710953 212 212 212
-0.75945044 0.73661071 33.83121109 217 217 217
-1.04102254 1.01541829 33.56671143 176 176 176
-0.62791854 0.60966700 33.98230743 217 217 217
-0.58010995 0.56243855 34.03724289 218 218 218
-0.97273231 0.95369828 33.58571243 195 195 195
-0.89105266 0.87457824 33.67855072 206 206 206
-0.39645901 0.38165742 34.24915314 219 219 219
-0.28927273 0.27460763 34.37277985 217 217 217
-0.53687543 0.53019458 34.08543777 216 216 216
-0.99702269 1.00557733 33.60976410 174 174 174
-0.91027814 0.92661107 33.65155411 210 210 210
-0.94482863 0.97531891 33.63648987 195 195 195
-0.49091053 0.50469422 34.13511276 216 216 216
-0.78601760 0.81766826 33.79087448 199 199 199
-0.67626780 0.70226359 33.91954422 217 217 217
-0.31537363 0.31932023 34.33982849 219 219 219
-0.82092702 0.85747349 33.75080872 214 214 214
-0.71577716 0.75381172 33.87110519 212 212 212
-0.84900373 0.89985830 33.71591187 210 210 210
-0.63193482 0.66930360 33.96826553 213 213 213
-0.74648190 0.79652894 33.83391953 213 213 213
-0.41327903 0.43459177 34.22316742 221 221 221
-0.91081232 0.97686154 33.68832397 195 195 195
-0.58421153 0.62217456 34.02349854 215 215 215
-0.34025553 0.36486208 34.30714035 216 216 216
-0.53873932 0.59035969 34.07362747 211 211 211
-0.86515737 0.95843756 33.72950745 187 187 187
-0.43586406 0.48307714 34.19309616 217 217 217
-0.77742600 0.87843114 33.78991318 210 210 210
-0.81004655 0.92087084 33.75926971 189 189 189
-0.67182726 0.76314408 33.91322327 216 216 216
-0.49763763 0.56358367 34.11870956 216 216 216
-0.63446766 0.72938991 33.95534515 214 214 214
-0.70300692 0.81392288 33.87417221 213 213 213
-0.73802805 0.85736758 33.83222580 214 214 214
-0.58790690 0.68185472 34.00957489 222 222 222
-0.24235523 0.27219096 34.45191193 211 211 211
-0.79254198 0.93564361 33.81619644 191 191 191
-0.35780787 0.41748291 34.28084183 221 221 221
-0.45133799 0.53732461 34.16886902 218 218 218
-0.54296952 0.65016186 34.05927658 218 218 218
-0.75186646 0.91592932 33.85938644 191 191 191
-0.70638686 0.87899214 33.88057709 204 204 204
-0.65868795 0.82300544 33.91593170 213 213 213
-0.49912387 0.62376690 34.10659409 214 214 214
-0.59048289 0.74186629 33.99671173 215 215 215
-0.62448740 0.78992534 33.95546722 218 218 218
-0.27114591 0.33270720 34.38051987 215 215 215
-0.39154646 0.49061084 34.23552322 217 217 217
-0.54638821 0.70992333 34.04542923 215 215 215
-0.29656702 0.37818208 34.34808731 219 219 219
-0.45773536 0.59616941 34.15278244 216 216 216
-0.64481497 0.85136276 33.96959305 203 203 203
-0.40725425 0.54458112 34.21094513 216 216 216
-0.60257643 0.81757563 34.00582504 198 198 198
-0.50338531 0.68339813 34.09227753 216 216 216
-0.34992465 0.47830272 34.27881241 214 214 214
-0.56202835 0.78070891 34.03523636 209 209 209
-0.31398872 0.43088123 34.32186127 220 220 220
-0.53030801 0.75729561 34.08270264 204 204 204
-0.45949584 0.65629572 34.14059830 222 222 222
-0.41351414 0.60353398 34.19477844 215 215 215
-0.49435955 0.72559774 34.13612747 210 210 210
