-1.10520518 -0.85428751 32.25276566 158 158 158
-1.07296455 -0.83450949 31.66001129 80 80 80
-1.01278532 -0.78418314 31.78646469 73 73 73
-1.10121810 -0.84442049 31.99806023 140 140 140
-1.05203223 -0.80931097 31.74529266 81 81 81
-0.97783470 -0.75002480 31.88499832 110 110 110
-1.00164628 -0.76636720 31.94956398 210 210 210
-1.12560141 -0.85669279 32.18823624 161 161 161
-1.12948525 -0.85797346 32.10243607 133 133 133
-1.12869442 -0.86052185 31.64619064 123 123 123
-1.14167631 -0.86954737 31.52907944 204 204 204
-1.11719513 -0.84388334 31.70535851 108 108 108
-1.14463437 -0.86041200 32.03863907 153 153 153
-1.03301084 -0.77679676 31.85977936 113 113 113
-1.15214396 -0.86639357 31.58967972 144 144 144
-1.07485628 -0.80514902 31.80571556 103 103 103
-1.15707195 -0.86136240 32.28596878 156 156 156
-1.14286757 -0.85048151 31.95346642 183 183 183
-1.17321241 -0.86265779 32.22683334 165 165 165
-1.17192030 -0.86181027 32.14762115 170 170 170
-1.17420244 -0.86702198 31.68689728 132 132 132
-0.82342553 -0.61063302 31.78736687 213 213 213
-0.88050938 -0.65021592 31.78742027 200 200 200
-1.13566411 -0.83382183 31.77057838 118 118 118
-1.18811655 -0.86518055 32.08558273 161 161 161
-1.10207856 -0.80436617 31.94827271 211 211 211
-1.20252204 -0.87708718 31.53297043 188 188 188
-1.05945373 -0.77113450 31.91735268 146 146 146
-1.19874370 -0.87178332 31.62988472 150 150 150
-0.97079325 -0.70584518 31.78721619 200 200 200
-1.09984350 -0.79521519 31.87239265 118 118 118
-1.20283592 -0.86643976 32.01967621 185 185 185
-1.21939075 -0.86769032 32.28951645 170 170 170
-1.20363986 -0.85703003 31.95866394 188 188 188
-1.14776623 -0.81872654 31.83276558 121 121 121
-1.22004938 -0.86633635 32.18682480 168 168 168
-1.21140110 -0.86359197 31.73723793 128 128 128
-1.99997890 -1.40648556 32.23706818 144 144 144
-1.99878514 -1.40608120 32.17479324 158 158 158
-1.23553228 -0.87377137 31.68135834 163 163 163
-1.33413243 -0.93690860 32.28041840 83 83 83
-1.28543556 -0.90290397 32.29876328 130 130 130
-1.23354137 -0.86804360 32.12702179 153 153 153
-1.37996173 -0.96720493 32.24021149 69 69 69
-1.25953281 -0.88295323 32.24164200 175 175 175
-1.23820543 -0.87296993 31.58287621 167 167 167
-1.02927566 -0.72509670 31.78760910 208 208 208
-1.96552384 -1.36330962 32.20898056 0 0 0
-1.97724915 -1.36996269 32.28123093 160 160 160
-1.24637103 -0.86828780 32.06607056 168 168 168
-1.20354891 -0.84002668 31.80548096 120 120 120
-1.11229682 -0.77445042 31.76723099 176 176 176
-1.92200041 -1.31903195 32.23025131 0 0 0
-1.15168381 -0.79537672 31.90523148 133 133 133
-0.94181609 -0.65103608 31.78718185 213 213 213
-1.27168322 -0.87447852 31.73365974 161 161 161
-1.27428854 -0.87498313 31.63334274 158 158 158
-1.25639677 -0.85971802 31.99015999 163 163 163
-1.18116534 -0.80754465 31.70880890 145 145 145
-1.96264088 -1.32637370 32.32201767 164 164 164
-1.27893937 -0.86818796 32.16950607 168 168 168
-1.19787991 -0.81587887 31.86836243 146 146 146
-1.94971490 -1.31237566 32.17576599 140 140 140
-0.80787611 -0.55093986 31.78736877 194 194 194
-1.29167950 -0.86874956 32.10759735 161 161 161
-1.29879379 -0.86888963 32.03409576 167 167 167
-1.44276309 -0.95885617 32.22325134 155 155 155
-1.17459869 -0.78492779 31.76952744 189 189 189
-1.19507051 -0.79664832 31.94864273 210 210 210
-1.30972183 -0.87322420 31.68524170 175 175 175
-1.94845629 -1.28717995 32.27695465 177 177 177
-1.26613033 -0.84239686 31.82282066 154 154 154
-0.88113391 -0.58865398 31.78694344 203 203 203
-1.94635701 -1.28110647 32.36027527 173 173 173
-1.27439594 -0.84086102 32.28379440 165 165 165
-1.31944621 -0.87210214 31.59167099 180 180 180
-1.37795615 -0.90506119 32.25001144 110 110 110
-1.30727768 -0.85994864 31.95594597 185 185 185
-1.31562042 -0.86659425 31.77579117 156 156 156
-1.09052396 -0.72031051 31.78698921 202 202 202
-1.90399981 -1.24536467 32.19721985 103 103 103
-1.33471525 -0.87149805 32.27875519 138 138 138
-1.01668119 -0.66503704 31.78703308 195 195 195
-1.33733106 -0.86686534 32.15047836 210 210 210
-1.25372469 -0.81458628 31.94826317 197 197 197
-1.28320265 -0.82973498 32.22157288 106 106 106
-1.25801456 -0.81702256 31.71161270 144 144 144
-1.26308203 -0.81756252 31.88272285 150 150 150
-1.93270659 -1.24174595 32.31512451 197 197 197
-1.34478354 -0.86614627 32.07639694 139 139 139
-1.92980886 -1.23610485 32.39853668 172 172 172
-1.93017471 -1.23396993 32.25210571 178 178 178
-1.35454905 -0.86896414 31.72805786 166 166 166
-1.35405195 -0.86921495 31.64307404 175 175 175
-1.23553872 -0.79188275 31.76728439 177 177 177
-1.35827708 -0.86297303 32.01652145 163 163 163
-1.24851894 -0.78923601 32.26255798 145 145 145
-1.15110552 -0.73085397 31.78704643 202 202 202
-1.32714784 -0.83982003 31.83997345 137 137 137
-1.50293589 -0.94643819 32.22559357 140 140 140
-1.91621935 -1.19613206 32.35364151 183 183 183
-1.37689662 -0.86509311 31.78683853 173 173 173
-1.43761206 -0.89846373 32.23357010 211 211 211
-1.90416586 -1.18689144 32.21612549 0 0 0
-1.36909449 -0.85493594 31.95608139 180 180 180
-1.91425240 -1.18851376 32.29088211 177 177 177
-0.94271672 -0.58973324 31.78583336 200 200 200
-1.39835894 -0.86349863 31.68518639 181 181 181
-1.40065920 -0.86060381 32.10170364 175 175 175
-1.32337236 -0.81194746 31.89943123 139 139 139
-1.30591810 -0.80021638 31.75309944 174 174 174
-1.38137567 -0.84147036 32.24972534 122 122 122
-1.07800412 -0.66026509 31.78634644 176 176 176
-1.41324162 -0.86185372 31.62552261 175 175 175
-1.21222639 -0.73841870 31.78694344 203 203 203
-1.41456413 -0.85779548 32.04129410 139 139 139
-0.86524761 -0.52922326 31.78606987 214 214 214
-1.42130375 -0.86125982 31.74406242 166 166 166
-1.89691293 -1.14131677 32.37507248 188 188 188
-1.88874137 -1.13691294 32.18104935 146 146 146
-1.89801157 -1.14044416 32.25576401 187 187 187
-1.38953805 -0.83872819 31.84231186 143 143 143
-1.00256693 -0.60517901 31.78631973 187 187 187
-1.32333124 -0.79183948 32.18538666 95 95 95
-1.89148438 -1.12604797 32.31553268 188 188 188
-1.56111479 -0.92801267 32.23419952 151 151 151
-1.43503428 -0.85626107 31.80418205 167 167 167
-1.42473876 -0.84774774 31.98113060 148 148 148
-1.49833846 -0.88564885 32.23400116 194 194 194
-1.42839468 -0.84231555 32.20841980 131 131 131
-1.28802681 -0.75786591 32.22263718 94 94 94
-1.28101909 -0.75538725 31.78705597 200 200 200
-1.87011659 -1.09151447 32.21836090 0 0 0
-1.35626578 -0.79525864 31.94881248 206 206 206
-1.45679510 -0.85518450 31.66835403 180 180 180
-1.13916874 -0.67047149 31.78652763 213 213 213
-1.35450065 -0.79050022 32.27493668 90 90 90
-1.87705100 -1.08521950 32.36025238 181 181 181
-1.87511659 -1.07960558 32.27832031 188 188 188
-1.36346376 -0.78831023 31.77224731 191 191 191
-1.39585602 -0.80541295 31.90143394 158 158 158
-1.47325075 -0.84747958 32.02662277 191 191 191
-1.47670996 -0.84805703 32.17037964 188 188 188
-1.47940862 -0.85138470 31.76175690 175 175 175
-1.62209749 -0.91822809 32.23247910 191 191 191
-0.92669261 -0.53040648 31.78588867 204 204 204
-1.45096898 -0.82367808 31.85950661 148 148 148
-1.47739279 -0.83600998 31.95178223 200 200 200
-1.85727656 -1.04449952 32.18031693 139 139 139
-1.20074141 -0.67812634 31.78649139 216 216 216
-1.50450456 -0.84539634 31.70571327 178 178 178
-1.06371474 -0.60034519 31.78583527 203 203 203
-1.86062074 -1.03889251 32.32296371 200 200 200
-1.49904644 -0.83998370 31.82125664 154 154 154
-1.26202071 -0.70445055 32.25105667 91 91 91
-1.85932565 -1.03338826 32.24111557 173 173 173
-1.55703259 -0.86654890 32.23334122 218 218 218
-1.43273330 -0.79338735 31.94906044 199 199 199
-1.25884056 -0.69781148 31.78615952 216 216 216
-1.52200782 -0.83716625 32.12999725 181 181 181
-0.98664570 -0.54573894 31.78557396 216 216 216
-1.42977476 -0.78587991 31.76307869 183 183 183
-1.33889651 -0.73381931 31.78728485 182 182 182
-1.53423965 -0.83711201 31.65274048 181 181 181
-1.53827405 -0.83718622 31.77349091 198 198 198
-1.68315291 -0.91076815 32.23144531 142 142 142
-1.84142852 -0.99337548 32.28641129 85 85 85
-1.12461162 -0.61072779 31.78561783 219 219 219
-1.83039439 -0.98496091 32.21571350 21 21 21
-0.85826838 -0.46805444 31.78629494 202 202 202
-1.53272784 -0.82297480 31.97485733 165 165 165
-1.54857028 -0.82893676 32.18553543 158 158 158
-1.48044467 -0.79031616 31.90508080 152 152 152
-1.61819017 -0.85670233 32.23330688 194 194 194
-1.86209226 -0.98463738 32.15903854 118 118 118
-1.56285298 -0.82986635 31.71682930 186 186 186
-1.55917978 -0.82242751 31.83079910 181 181 181
-1.56656945 -0.82426745 32.08982849 191 191 191
-1.40042865 -0.73708403 31.78703690 169 169 169
-1.82700992 -0.94879764 32.32648849 187 187 187
-1.74933529 -0.90721172 32.22181702 127 127 127
-1.81266963 -0.93891519 32.26761246 12 12 12
-1.18599367 -0.61818987 31.78650284 214 214 214
-1.77001333 -0.91231763 32.31600952 15 15 15
-1.49010980 -0.77179223 31.76736259 188 188 188
-1.80999672 -0.93119818 32.19415665 85 85 85
-1.59307981 -0.82072437 31.66424370 195 195 195
-1.59281075 -0.81554806 32.14458847 180 180 180
-1.59721029 -0.81960803 31.78253555 185 185 185
-1.04811072 -0.54096800 31.78565788 180 180 180
-1.31709003 -0.67636293 31.78647232 225 225 225
-1.24662852 -0.63724941 31.78591919 213 213 213
-1.68000054 -0.84937751 32.23284912 198 198 198
-1.51899481 -0.76934600 31.94845200 196 196 196
-1.27882731 -0.64696455 32.23780441 57 57 57
-1.54590917 -0.78245413 31.89394379 152 152 152
-0.91959882 -0.46945593 31.78577805 213 213 213
-1.60988426 -0.80778497 32.04895020 184 184 184
-1.74838006 -0.87367004 32.27325058 206 206 206
-1.62116778 -0.81049734 31.72643471 187 187 187
-1.61988449 -0.80567163 32.19878387 184 184 184
-1.61677098 -0.80266142 31.83830833 175 175 175
-1.10917473 -0.55119932 31.78587532 208 208 208
-1.46023118 -0.72180146 31.78693390 211 211 211
-1.37905371 -0.67949355 31.78665924 220 220 220
-0.97950161 -0.48484054 31.78508759 202 202 202
-1.63638878 -0.79904550 32.10400009 202 202 202
-1.55020225 -0.75719678 31.76595497 185 185 185
-1.65013659 -0.79899305 31.67294121 184 184 184
-1.65508199 -0.79806811 31.78888321 198 198 198
-1.73776352 -0.82741302 32.23393250 217 217 217
-1.66405809 -0.78918874 32.23803329 181 181 181
-1.17010808 -0.55887806 31.78555489 206 206 206
-1.60933268 -0.76446331 31.89139366 166 166 166
-1.66333747 -0.78804594 32.15823746 200 200 200
-1.65964806 -0.78694391 32.01964569 151 151 151
-1.57300997 -0.74113077 31.93838310 186 186 186
-1.30440104 -0.61602819 31.78589821 217 217 217
-1.67780161 -0.78711772 31.73254395 189 189 189
-1.23220658 -0.57729089 31.78578758 207 207 207
-1.52045691 -0.70762557 31.78734398 184 184 184
-0.89012855 -0.41535014 31.78598976 198 198 198
-1.68576241 -0.77587134 32.07588577 191 191 191
-1.43859136 -0.66438276 31.78641891 214 214 214
-1.73593235 -0.79665411 32.28735352 206 206 206
-1.60902703 -0.73781234 31.76591873 186 186 186
-1.04157758 -0.47998738 31.78546715 192 192 192
-1.71557438 -0.78451467 31.79961777 112 112 112
-1.70577359 -0.77362883 31.67744255 195 195 195
-1.36616385 -0.61934239 31.78605080 218 218 218
-1.70585990 -0.76765972 32.19799423 133 133 133
-1.69107699 -0.76079756 31.97348404 123 123 123
-1.71274960 -0.76385313 32.12960434 194 194 194
-1.73973823 -0.76919007 31.74507523 124 124 124
-1.10236204 -0.49010873 31.78585625 171 171 171
-1.72128236 -0.75783408 32.02824020 139 139 139
-1.34244418 -0.59108239 32.22100830 89 89 89
-1.39423990 -0.61295116 32.18030167 77 77 77
-1.52857530 -0.67202538 32.04644775 70 70 70
-1.58401489 -0.69575006 31.99787712 103 103 103
-1.63977873 -0.72030056 31.93046951 158 158 158
-1.71748245 -0.75313848 31.85343933 165 165 165
-0.96286964 -0.42579529 31.78516960 223 223 223
-1.57920146 -0.68864155 31.78730965 208 208 208
-1.73868084 -0.75036079 32.24683380 180 180 180
-1.49926627 -0.64968169 31.78639603 226 226 226
-1.29001427 -0.55626601 31.78592110 213 213 213
-1.16257727 -0.49934739 31.79877853 58 58 58
-1.74724138 -0.74439371 32.08261490 203 203 203
-1.78057027 -0.75578934 31.69591904 133 133 133
-1.75487030 -0.74178469 32.17160416 213 213 213
-1.18798149 -0.50382292 32.20014191 131 131 131
-1.47895575 -0.62736237 31.84154129 68 68 68
-1.69645572 -0.71775049 31.90414047 165 165 165
-1.76069832 -0.74428588 31.81058121 198 198 198
-1.42171681 -0.60210621 31.87081718 68 68 68
-1.42876065 -0.60534203 31.80213356 150 150 150
-1.32161808 -0.55925328 31.96921158 54 54 54
-1.36881745 -0.57924157 31.90977669 52 52 52
-1.18249214 -0.49988982 32.13801575 116 116 116
-1.22004545 -0.51580840 32.08344650 62 62 62
-1.26585722 -0.53530782 31.99773598 75 75 75
-1.36593509 -0.57778645 31.83909416 127 127 127
-1.28928649 -0.54497731 31.91888046 105 105 105
-1.22074771 -0.51693380 31.78559303 200 200 200
-1.74296510 -0.73367280 31.95439529 165 165 165
-1.20506275 -0.50897253 32.02193451 108 108 108
-1.15069830 -0.48557445 32.08624649 125 125 125
-1.30673301 -0.55159134 31.84940147 123 123 123
-1.22907984 -0.51832271 31.94902420 101 101 101
-1.67140293 -0.70138156 31.77681732 154 154 154
-1.14299238 -0.48052758 32.02481079 125 125 125
-1.23574495 -0.51959240 31.88596535 124 124 124
-1.17466152 -0.49344376 31.96803284 121 121 121
-1.09506977 -0.45909360 32.08549500 167 167 167
-1.18083262 -0.49404314 31.90384483 127 127 127
-1.08464909 -0.45212638 32.02326965 115 115 115
-1.11625135 -0.46535212 31.96682739 114 114 114
-1.02101898 -0.42584881 31.80563736 90 90 90
-1.11900270 -0.46516111 31.90399361 34 34 34
-1.02903497 -0.42573029 32.02939224 136 136 136
-1.05656672 -0.43719861 31.97061348 23 23 23
-1.12709045 -0.46598193 31.84255409 35 35 35
-1.77451742 -0.72704029 32.03013611 187 187 187
-1.78483045 -0.72900510 31.75591469 203 203 203
-1.06252587 -0.43591005 31.90738487 53 53 53
-1.35124826 -0.54968476 31.78659439 213 213 213
-1.78667355 -0.72233307 32.22069550 211 211 211
-0.99921083 -0.40720642 31.97910690 120 120 120
-1.78718340 -0.72161084 32.12352371 212 212 212
-1.55845737 -0.63063312 31.78688622 215 215 215
-1.77347207 -0.71579051 31.86387634 173 173 173
-1.06867146 -0.43405288 31.84426117 128 128 128
-1.63164830 -0.65587604 31.78770638 206 206 206
-1.00458074 -0.40530708 31.91483498 84 84 84
-1.26095271 -0.50656766 31.83085060 80 80 80
-0.93296975 -0.37565395 31.80475235 51 51 51
-0.94671184 -0.37828383 31.99225998 137 137 137
-1.71295106 -0.67924225 31.94894409 165 165 165
-1.48667634 -0.58937931 31.78604889 221 221 221
-0.99453092 -0.39427698 31.85529137 51 51 51
-1.79218185 -0.70411277 31.97589684 187 187 187
-1.73205709 -0.68146825 31.76575470 188 188 188
-0.95010257 -0.37564653 31.92925262 65 65 65
-1.81279492 -0.71089983 31.81686211 202 202 202
-0.99728382 -0.39202407 32.06990051 82 82 82
-1.81742799 -0.70724738 31.70770454 200 200 200
-1.81378472 -0.70226979 32.07106400 210 210 210
-1.81853974 -0.70103014 32.17249298 210 210 210
-1.41228187 -0.54645193 31.79491997 186 186 186
-1.82159531 -0.70005840 32.26607895 201 201 201
-1.34264076 -0.51702183 31.88516045 140 140 140
-0.90100884 -0.34874839 31.96362495 96 96 96
-1.76396990 -0.67558843 31.90941620 162 162 162
-0.93885154 -0.36156860 31.86877060 49 49 49
-1.69142914 -0.64102173 31.78767776 219 219 219
-1.19502819 -0.45250154 32.04367828 0 0 0
-1.30485725 -0.49352559 31.95917892 0 0 0
-1.83744586 -0.69223613 31.76375961 199 199 199
-1.25759327 -0.47488832 32.01702118 5 5 5
-0.94591850 -0.35838276 32.07542801 80 80 80
-1.40478289 -0.52770102 31.85332108 38 38 38
-0.88811409 -0.33543617 31.89747810 43 43 43
-1.13445210 -0.42574072 32.05127335 4 4 4
-1.83421528 -0.68277031 32.01649857 180 180 180
-0.84807652 -0.31884146 31.97268677 108 108 108
-1.82690549 -0.67868662 31.86846161 188 188 188
-0.89220339 -0.33472621 31.83110428 0 0 0
-1.61108184 -0.59795749 31.78702545 216 216 216
-1.84486234 -0.68131769 32.12049484 216 216 216
-1.15949559 -0.42971349 31.99258804 65 65 65
-1.54519761 -0.57061672 31.78589249 216 216 216
-1.16094065 -0.42938626 31.93099785 80 80 80
-1.85251832 -0.67707676 32.21800995 215 215 215
-1.46720803 -0.53684723 31.82279778 71 71 71
-1.83842397 -0.67011976 31.95364380 195 195 195
-1.10625947 -0.40508714 31.95378876 46 46 46
-1.78578901 -0.64761889 31.76655960 190 190 190
-1.86226094 -0.67352021 31.81860924 206 206 206
-1.21377373 -0.44000888 31.96561813 72 72 72
-0.91915554 -0.33268350 32.02636719 10 10 10
-1.86610413 -0.66973537 31.71334267 203 203 203
-1.31947482 -0.47189423 32.01655960 0 0 0
-1.23186672 -0.44081497 31.90675545 135 135 135
-1.86624205 -0.66313624 32.06509399 205 205 205
-1.02073479 -0.36512282 32.01923370 32 32 32
-1.78822434 -0.63480955 31.94866753 162 162 162
-1.42000318 -0.50531149 31.91170502 26 26 26
-1.05348849 -0.37306878 31.96267700 61 61 61
-0.89744443 -0.31726599 32.08202362 55 55 55
-1.87833548 -0.65557164 32.16587830 219 219 219
-1.74337482 -0.60808474 31.78813362 214 214 214
-1.67070949 -0.58298153 31.78727722 208 208 208
-1.09067631 -0.38143733 31.89933205 118 118 118
-1.29119599 -0.44667780 31.92142296 107 107 107
-1.88806725 -0.65058279 31.76755142 200 200 200
-1.83445871 -0.62876475 31.90802193 168 168 168
-1.89039552 -0.64618075 32.25509262 196 196 196
-1.53211081 -0.52580869 31.83027840 94 94 94
-1.87792158 -0.64000088 32.00925446 210 210 210
-1.88252985 -0.63973373 31.86822510 191 191 191
-1.38281822 -0.47045878 31.99932480 82 82 82
-1.89869428 -0.63698959 32.11035919 221 221 221
-1.59764695 -0.53769124 31.78615189 215 215 215
-0.87104023 -0.29445070 32.02948761 0 0 0
-1.88376844 -0.62856877 31.94909668 194 194 194
-1.83375895 -0.60952008 31.76880836 191 191 191
-1.15315580 -0.38423175 31.88928413 82 82 82
-1.34145176 -0.44401777 31.96213341 90 90 90
-1.00033605 -0.33198771 31.97128677 27 27 27
-1.04188764 -0.34508848 31.90931892 63 63 63
-1.91194451 -0.62895334 31.71496582 213 213 213
-1.12001145 -0.36917564 31.83966064 118 118 118
-1.91507244 -0.62689573 31.81740570 210 210 210
-1.91526508 -0.62278360 32.20362854 210 210 210
-1.20897758 -0.39418495 31.86539078 81 81 81
-1.91584408 -0.61990446 32.05392075 201 201 201
-1.17407262 -0.38162017 31.81269836 84 84 84
-1.12606990 -0.36406040 31.77844620 110 110 110
-1.06307065 -0.34196046 31.84705544 34 34 34
-1.36451769 -0.43674371 31.90578651 170 170 170
-1.72312570 -0.55002952 31.78742027 208 208 208
-1.79137695 -0.56922364 31.78799438 203 203 203
-1.19388938 -0.38054079 31.75290108 63 63 63
-1.84221447 -0.58310449 31.94852066 184 184 184
-1.23564816 -0.39269441 31.80904007 49 49 49
-1.65758538 -0.52305049 31.78617477 214 214 214
-1.14548731 -0.36331442 31.71832848 70 70 70
-1.27291930 -0.40224341 31.88198090 67 67 67
-1.44404483 -0.45386440 31.99729729 94 94 94
-1.92151439 -0.60107493 31.99066734 195 195 195
-1.93497193 -0.60419470 32.14825439 210 210 210
-1.60133338 -0.50156647 31.83690834 132 132 132
-1.93779600 -0.60429573 31.76490021 212 212 212
-1.92699158 -0.59777701 31.87284851 205 205 205
-1.40539932 -0.43703052 31.95229721 75 75 75
-1.19746602 -0.37349120 31.68729591 74 74 74
-1.25156653 -0.38729799 31.73239517 28 28 28
-1.29612243 -0.39613852 31.82525635 128 128 128
-1.20882821 -0.37007526 31.62701225 35 35 35
-1.88454366 -0.57284504 31.76549721 195 195 195
-1.94983494 -0.58993989 32.24312210 198 198 198
-1.95140064 -0.58627933 32.09125900 210 210 210
-1.25664759 -0.37976834 31.66731834 7 7 7
-1.89498293 -0.56457382 31.91885948 168 168 168
-1.95863795 -0.58365178 31.82189178 212 212 212
-1.30558109 -0.38874203 31.76292992 0 0 0
-1.95886195 -0.58031392 31.71241951 213 213 213
-1.24260652 -0.36954719 31.57354736 0 0 0
-1.34607911 -0.39767271 31.86104202 75 75 75
-1.96034670 -0.57518351 32.03145599 204 204 204
-1.30794954 -0.38381991 31.70133209 37 37 37
-1.44643521 -0.42119935 31.90924072 143 143 143
-1.96781707 -0.57008559 32.18793488 218 218 218
-1.95256853 -0.56627923 31.95082855 225 225 225
-1.84225392 -0.53434145 31.78797722 202 202 202
-1.28856814 -0.37471715 31.61490822 4 4 4
-1.29150569 -0.37484309 31.53138161 0 0 0
-1.77136540 -0.51080042 31.78734970 219 219 219
-1.65852726 -0.47843260 31.83368301 104 104 104
-1.50391507 -0.43329996 31.98840714 19 19 19
-1.71102929 -0.48988110 31.78763008 197 197 197
-1.35368419 -0.38667119 31.80099869 0 0 0
-1.97937000 -0.55923969 31.76883888 199 199 199
-1.96983957 -0.55382335 31.87538338 189 189 189
-1.36029029 -0.38265127 31.73489571 60 60 60
-1.98403907 -0.55233765 32.13081741 230 230 230
-1.34020197 -0.37547553 31.64979744 0 0 0
-1.34033179 -0.37547222 31.48324394 0 0 0
-1.40479147 -0.38890031 31.87752342 125 125 125
-1.33512819 -0.36875114 31.57517242 13 13 13
-1.92274415 -0.52401173 31.77415848 194 194 194
-1.99295533 -0.53997201 32.07109833 212 212 212
-1.99676478 -0.53783619 32.23164368 220 220 220
-1.98539793 -0.53449810 31.99260902 195 195 195
-1.91649878 -0.51616973 31.94973183 185 185 185
-1.99955022 -0.53709990 31.82419968 217 217 217
-1.49868524 -0.40122756 31.93589592 108 108 108
-1.41542995 -0.37948307 31.80390549 84 84 84
-1.99977219 -0.53388637 31.71674919 208 208 208
-1.39260983 -0.37084496 31.68201065 26 26 26
-1.38717687 -0.36467612 31.60856247 52 52 52
-1.39850461 -0.36801416 31.45058632 0 0 0
-1.82250237 -0.47593760 31.78734207 213 213 213
-1.56038165 -0.40622041 31.97939491 0 0 0
-1.71073747 -0.44491062 31.83396149 58 58 58
-1.37954664 -0.35925266 31.53382683 32 32 32
-2.01214933 -0.51908147 32.17513275 207 207 207
-1.42225909 -0.36881605 31.73586082 57 57 57
-1.96681082 -0.50315315 31.91071892 156 156 156
-1.76002359 -0.44918790 31.79586029 146 146 146
-1.88419664 -0.47845960 31.78825760 215 215 215
-2.01929307 -0.51182777 31.77159500 216 216 216
-1.46042025 -0.37048063 31.85848618 126 126 126
-2.02168703 -0.50639838 32.11502838 215 215 215
-2.02262497 -0.50349748 32.03135300 205 205 205
-2.01918769 -0.50297177 31.87355232 201 201 201
-2.01233673 -0.49657327 31.95234108 212 212 212
-1.43732190 -0.35442910 31.64258575 120 120 120
-1.47057319 -0.35924491 31.78525352 117 117 117
-1.96533072 -0.47746098 31.77430153 189 189 189
-1.54885352 -0.37574077 31.91049576 135 135 135
-1.43243253 -0.34852913 31.57028961 87 87 87
-1.45195687 -0.35355833 31.42285156 0 0 0
-2.03807950 -0.48651311 32.22072983 217 217 217
-1.42805743 -0.34235281 31.49887848 58 58 58
-1.46651566 -0.35017726 31.69708824 95 95 95
-2.04100966 -0.48306569 31.72189903 218 218 218
-2.04318094 -0.48221725 31.82082558 219 219 219
-1.96614146 -0.45540801 31.94925308 198 198 198
-2.04782963 -0.47145945 32.15993500 186 186 186
-1.61394942 -0.37168628 31.97212982 0 0 0
-2.04872417 -0.46886775 32.07478714 219 219 219
-1.81312454 -0.41517079 31.78882599 172 172 172
-1.51319659 -0.34650078 31.83837891 127 127 127
-1.48222220 -0.33444318 31.60382080 116 116 116
-2.03543115 -0.45639190 31.99404335 202 202 202
-1.92521107 -0.43220708 31.78815651 183 183 183
-2.01617408 -0.45021167 31.90599060 173 173 173
-1.51446450 -0.33562586 31.74892235 95 95 95
-1.47768378 -0.32799968 31.53333092 81 81 81
-2.06333327 -0.45235348 31.77012062 215 215 215
-1.50771976 -0.33168811 31.40884399 0 0 0
-2.06638288 -0.45000485 31.86766052 218 218 218
-1.50976729 -0.32717279 31.65918922 101 101 101
-1.60123670 -0.34409162 31.91800499 111 111 111
-1.47548199 -0.31818211 31.46783257 11 11 11
-2.00357437 -0.42885944 31.77434158 189 189 189
-1.78231490 -0.38119289 31.83722687 53 53 53
-1.87255859 -0.39986160 31.78661346 189 189 189
-2.07208133 -0.43739298 32.20588684 221 221 221
-2.07360625 -0.43366751 32.11909866 208 208 208
-1.55719829 -0.32502341 31.87552071 138 138 138
-2.07426214 -0.43038344 32.03427887 216 216 216
-2.06318045 -0.42365748 31.95017624 208 208 208
-1.55414474 -0.31832695 31.80248260 137 137 137
-2.00378180 -0.40667757 31.94970322 170 170 170
-1.52511144 -0.30822015 31.56764984 112 112 112
-2.08530307 -0.41904294 31.81774902 221 221 221
-2.08488011 -0.41670939 31.72424507 223 223 223
-1.66441751 -0.33287531 31.96360016 0 0 0
-1.55434859 -0.30942258 31.70932770 128 128 128
-1.96297419 -0.38358930 31.78823280 184 184 184
-1.52438951 -0.29864484 31.49922371 55 55 55
-1.55430865 -0.30292308 31.43748093 0 0 0
-1.83474338 -0.35516715 31.81568718 105 105 105
-1.55050325 -0.29857093 31.62270927 113 113 113
-2.09531689 -0.39838856 32.16449356 225 225 225
-2.07247019 -0.39443740 31.89348793 188 188 188
-2.09742236 -0.39425409 32.07833862 228 228 228
-2.04931569 -0.38395661 31.76342010 185 185 185
-2.08980680 -0.38761809 31.99300194 186 186 186
-1.64663601 -0.30345151 31.91112900 145 145 145
-1.91064477 -0.35132778 31.78721428 190 190 190
-1.59598744 -0.29272336 31.83944321 128 128 128
-1.59184110 -0.28857622 31.76413918 137 137 137
-2.10899591 -0.37745783 31.77813911 227 227 227
-2.04856658 -0.36410266 31.95026588 191 191 191
-2.11184740 -0.37418306 31.85059357 216 216 216
-1.57301247 -0.27463961 31.54761505 119 119 119
-1.59215856 -0.27633348 31.67374039 123 123 123
-2.00980973 -0.34367508 31.78824615 197 197 197
-1.70927322 -0.29103431 31.95541954 0 0 0
-2.11823940 -0.35812095 32.12388229 223 223 223
-1.60409129 -0.27195504 31.41811371 0 0 0
-2.11898422 -0.35443473 32.03673935 200 200 200
-1.57217228 -0.26264644 31.48161125 54 54 54
-2.12236190 -0.34937534 32.18983459 225 225 225
-2.10755277 -0.34611189 31.95148277 218 218 218
-1.59660268 -0.26158854 31.60364532 124 124 124
-2.12387204 -0.34632894 31.72721863 217 217 217
-1.87291193 -0.30395222 31.81609344 85 85 85
-1.95752001 -0.31104270 31.78781891 214 214 214
-1.63077652 -0.25863591 31.80141258 146 146 146
-2.07311487 -0.32696080 31.77049255 198 198 198
-1.62547612 -0.25563779 31.87851524 47 47 47
-1.62735009 -0.25491756 31.72556877 140 140 140
-2.13273764 -0.33119121 31.81217384 221 221 221
-2.11224127 -0.32656619 31.89299583 197 197 197
-1.68799388 -0.25790781 31.90821838 152 152 152
-2.13779330 -0.31700382 32.08222580 210 210 210
-2.06238413 -0.30530709 31.93906784 173 173 173
-2.12790608 -0.30925089 31.99612427 204 204 204
-1.61627829 -0.23522197 31.52769089 137 137 137
-1.63408077 -0.23560403 31.65464783 150 150 150
-2.14195752 -0.30710807 32.14944839 225 225 225
-2.03129959 -0.28570715 31.78863335 211 211 211
-2.14554572 -0.29960778 31.76097107 210 210 210
-1.61514783 -0.22457719 31.45694923 88 88 88
-1.74962008 -0.24204044 31.94770813 0 0 0
-1.91890633 -0.26347792 31.79987717 128 128 128
-2.15023971 -0.29360679 31.85741997 216 216 216
-1.66476095 -0.22507188 31.84103966 122 122 122
-1.63752413 -0.22013640 31.58356476 134 134 134
-1.66254723 -0.22157070 31.76348686 133 133 133
-2.11246848 -0.27157226 31.94984055 202 202 202
-2.09114671 -0.26844957 31.77787399 198 198 198
-1.97896791 -0.25354975 31.78722000 216 216 216
-1.65225554 -0.21232446 31.40845108 0 0 0
-2.15511513 -0.27516744 32.04067993 201 201 201
-1.65586519 -0.20466642 31.70466995 70 70 70
-2.15915871 -0.26473331 32.10825348 216 216 216
-2.16236234 -0.26140100 31.80632019 216 216 216
-1.72227919 -0.20637578 31.90577698 192 192 192
-1.64750159 -0.19117571 31.49692726 110 110 110
-2.16479969 -0.24986012 31.73051834 226 226 226
-2.15612006 -0.24680397 31.98603821 203 203 203
-2.13832808 -0.24410775 31.90149117 200 200 200
-1.67103863 -0.18971796 31.63628387 148 148 148
-2.16760993 -0.24199837 32.16474152 218 218 218
-2.04794550 -0.22589572 31.78861237 203 203 203
-1.69336808 -0.18487477 31.80178452 132 132 132
-1.90937281 -0.20773637 31.83018494 43 43 43
-1.64970517 -0.17897849 31.34612846 0 0 0
-1.79992700 -0.19072056 31.92765808 0 0 0
-1.73857868 -0.18364879 31.96288681 19 19 19
-2.17563653 -0.22676259 31.85598373 220 220 220
-1.66585445 -0.17407602 31.55337906 72 72 72
-2.17374396 -0.22236539 32.06638336 211 211 211
-1.68917263 -0.17307363 31.86320686 41 41 41
-2.09414220 -0.21302432 31.94823074 197 197 197
-2.12889624 -0.21498750 31.76629448 194 194 194
-1.96091318 -0.19518372 31.79370499 155 155 155
-1.68598723 -0.16645925 31.74253845 62 62 62
-1.69377518 -0.16554715 31.38993454 0 0 0
-1.66245127 -0.16133553 31.44263649 77 77 77
-2.18183661 -0.20412850 31.79595566 224 224 224
-2.16088009 -0.19801027 31.94898987 194 194 194
-2.18150163 -0.19864105 32.12319946 219 219 219
-1.69406343 -0.15344830 31.68071365 91 91 91
-2.17398548 -0.19347221 32.01229095 212 212 212
-2.18428230 -0.19180071 31.73523712 219 219 219
-1.75491333 -0.15417624 31.90672112 195 195 195
-1.69461501 -0.14559822 31.60077477 155 155 155
-2.01770163 -0.17240281 31.78737640 214 214 214
-2.08631349 -0.17690718 31.78892326 188 188 188
-1.68247902 -0.13950792 31.49783325 100 100 100
-2.17351127 -0.17367068 31.89290237 204 204 204
-1.72305048 -0.13512455 31.82221603 144 144 144
-1.93276012 -0.14857699 31.83143234 78 78 78
-1.78937221 -0.13521820 31.95411110 85 85 85
-2.19149113 -0.16391134 32.07269669 225 225 225
-2.11651802 -0.15544876 31.95059967 196 196 196
-2.19447851 -0.15979642 31.83666992 221 221 221
-2.14413238 -0.15486993 31.77031708 177 177 177
-1.72734821 -0.12083787 31.76273346 168 168 168
-2.18622255 -0.14720263 31.97336769 200 200 200
-1.70401406 -0.11313714 31.54955482 137 137 137
-1.69314134 -0.11154673 31.42032433 50 50 50
-2.19680905 -0.14138214 32.14099503 224 224 224
-1.72606671 -0.10839736 31.87769699 46 46 46
-1.97906780 -0.12229408 31.80027771 142 142 142
-2.19996262 -0.13511693 31.75402260 224 224 224
-1.71496940 -0.10541586 31.64494133 92 92 92
-2.05646467 -0.12328913 31.78789711 213 213 213
-1.71836531 -0.09696867 31.70664406 66 66 66
-2.20088553 -0.12267586 32.02820969 198 198 198
-1.77919030 -0.09752438 31.90637589 213 213 213
-2.15595365 -0.11617743 31.91824913 206 206 206
-2.20525718 -0.11626883 31.87851715 231 231 231
-1.70853496 -0.08798929 31.47480011 162 162 162
-2.11557388 -0.10363920 31.78968239 168 168 168
-2.20424032 -0.10665333 32.09091949 225 225 225
-2.20691252 -0.10674371 31.80810356 225 225 225
-1.74913371 -0.07973991 31.81801414 173 173 173
-1.83415270 -0.08263831 31.92983627 1 1 1
-1.72035933 -0.07125268 31.59406853 70 70 70
-2.19807291 -0.08909891 31.95718765 230 230 230
-1.94548857 -0.07749547 31.83671951 73 73 73
-2.16854310 -0.08205774 31.76604652 185 185 185
-2.01698804 -0.07590558 31.78682709 188 188 188
-1.74426794 -0.06284208 31.75211525 121 121 121
-1.72591639 -0.06026605 31.52755737 167 167 167
-1.71345603 -0.05798098 31.39468765 117 117 117
-2.13420820 -0.06860714 31.95021629 163 163 163
-1.74413228 -0.05370168 31.67140388 173 173 173
-1.74854636 -0.05133323 31.87832642 83 83 83
-2.21158028 -0.06433474 32.04644775 217 217 217
-2.18622637 -0.06280136 31.90275002 204 204 204
-2.21614027 -0.06097076 31.84882164 222 222 222
-2.07545185 -0.05643591 31.78758049 208 208 208
-2.21512055 -0.05446272 31.73701668 209 209 209
-2.21320891 -0.05317149 32.12004852 226 226 226
-1.79859507 -0.03662913 31.94946671 109 109 109
-1.72540963 -0.03208185 31.45589066 172 172 172
-2.20696235 -0.03773357 31.99051476 200 200 200
-2.13443041 -0.03638434 31.78935242 166 166 166
-1.98477769 -0.02965542 31.81250954 98 98 98
-2.21901011 -0.03249065 31.79417419 225 225 225
-1.76545250 -0.02314879 31.80076981 176 176 176
-1.87126553 -0.02353642 31.90834999 0 0 0
-1.74787378 -0.02125907 31.61856270 162 162 162
-2.16608310 -0.01586310 31.95011520 195 195 195
-1.74268913 -0.01193223 31.71770859 80 80 80
-1.72761166 -0.00827163 31.35958099 130 130 130
-2.21851563 -0.01054360 32.07580185 222 222 222
-1.73514009 -0.00735226 31.55765915 103 103 103
-2.21335840 -0.00902823 31.88767242 216 216 216
-2.03677225 -0.00818513 31.78748894 176 176 176
-1.78209245 -0.00434289 31.89945412 218 218 218
-2.22240901 0.00638986 31.74644470 224 224 224
-2.09547639 0.01142954 31.78800583 191 191 191
-1.72154784 0.01019218 31.50045586 61 61 61
-2.22047877 0.01458520 32.01955032 216 216 216
-2.22452378 0.01546246 31.83256531 226 226 226
-2.16935277 0.01745168 31.77569008 213 213 213
-1.83531857 0.01482608 31.94151878 11 11 11
-1.72121584 0.01640066 31.41844368 102 102 102
-2.21204114 0.02374953 31.95896149 194 194 194
-1.74061477 0.01908168 31.66479683 74 74 74
-1.76033020 0.01969690 31.84454727 86 86 86
-1.76949430 0.02618564 31.76382065 203 203 203
-1.99481535 0.03086605 31.80938530 126 126 126
-2.14378405 0.04127567 31.94806671 215 215 215
-1.75460780 0.03729364 31.60056686 200 200 200
-2.22298956 0.04723654 32.09597778 228 228 228
-2.20393157 0.05074735 31.89858627 205 205 205
-2.22524071 0.05456633 31.78487778 213 213 213
-2.04932666 0.05183549 31.78730011 192 192 192
-1.80633891 0.05198076 31.90211105 249 249 249
-2.12964368 0.06237775 31.78873825 203 203 203
-1.73082066 0.05267123 31.36850739 146 146 146
-1.74379194 0.05396591 31.53742790 150 150 150
-1.76751339 0.05506865 31.70936012 212 212 212
-1.73808837 0.05628541 31.46236420 185 185 185
-2.22317171 0.07244003 32.03993607 213 213 213
-2.22694492 0.07530492 31.84720421 221 221 221
-2.21453643 0.08152321 31.97976685 215 215 215
-1.77205980 0.06869277 31.80836105 165 165 165
-1.96802354 0.08106809 31.83240891 59 59 59
-2.22470093 0.09505919 31.73883629 225 225 225
-2.16786075 0.09522229 31.92728806 193 193 193
-1.75477493 0.07764284 31.64709663 180 180 180
-1.84754384 0.08504625 31.93358421 0 0 0
-2.08413219 0.10375925 31.78806877 183 183 183
-1.77393353 0.09065195 31.86686134 202 202 202
-2.22461176 0.11470936 31.79916954 220 220 220
-2.16548467 0.11255772 31.78015709 203 203 203
-2.01886249 0.10505346 31.79120827 156 156 156
-2.21361375 0.11778214 31.89087486 225 225 225
-1.75238705 0.09375869 31.75512314 128 128 128
-1.72903407 0.09345921 31.41427803 203 203 203
-1.74147725 0.09514464 31.58315659 157 157 157
-2.22303438 0.12098365 32.07795334 221 221 221
-2.21915770 0.13030975 32.01728821 218 218 218
-1.73065519 0.10257131 31.50186539 221 221 221
-2.20839596 0.13587138 31.95193481 228 228 228
-1.73051548 0.10972121 31.34135056 180 180 180
-1.89375758 0.12134892 31.80857658 255 255 255
-1.76024520 0.11453709 31.69631958 255 255 255
-1.93602252 0.12802184 31.85787964 47 47 47
-1.95805144 0.13014612 31.75996590 255 255 255
-1.88634682 0.12657449 31.74520874 255 255 255
-1.86532068 0.12529129 31.65594673 255 255 255
-1.84611475 0.12503089 31.30476189 255 255 255
-1.79472589 0.12155556 31.36109543 255 255 255
-1.80373609 0.12227920 31.79557037 255 255 255
-1.86586106 0.12666002 31.59237289 255 255 255
-1.84395218 0.12528451 31.51636505 255 255 255
-1.85144699 0.12586138 31.44767761 255 255 255
-2.14542127 0.14714390 31.95095444 203 203 203
-2.21957636 0.15466991 31.75280762 218 218 218
-1.81032431 0.12636748 31.90661430 255 255 255
-2.22192693 0.15720695 31.84379768 221 221 221
-2.12051582 0.15350348 31.78843307 207 207 207
-2.05231357 0.15632400 31.78724289 176 176 176
-1.75072181 0.13609523 31.62822914 231 231 231
-2.19041991 0.17320764 31.90649033 208 208 208
-2.21897984 0.17853363 32.05683136 200 200 200
-1.99350774 0.16097409 31.80783653 140 140 140
-1.76240814 0.14315362 31.83668518 214 214 214
-1.72721398 0.14236085 31.45451546 175 175 175
-1.73325980 0.14544280 31.54886436 155 155 155
-2.20880342 0.18453388 31.98992538 193 193 193
-1.72499025 0.14882995 31.38826370 218 218 218
-1.75454688 0.15270650 31.77290535 167 167 167
-2.21624994 0.19694979 31.79715538 231 231 231
-1.85524786 0.16565441 31.92168999 30 30 30
-1.76441622 0.16518648 31.89430618 152 152 152
-2.15416884 0.20457655 31.78313446 195 195 195
-2.16412258 0.20567806 31.95143318 183 183 183
-2.21705890 0.21356063 31.86763573 225 225 225
-1.73992062 0.16994616 31.67930031 116 116 116
-1.71561432 0.16868544 31.32972717 65 65 65
-2.08848405 0.20593873 31.78843498 211 211 211
-2.21128821 0.22055301 31.74074173 219 219 219
-2.02381659 0.21083421 31.78692245 183 183 183
-1.71974587 0.18182926 31.50120926 116 116 116
-2.21187806 0.23274988 32.02888107 196 196 196
-1.95571494 0.20642485 31.83148575 88 88 88
-1.80389643 0.19042844 31.94423103 70 70 70
-1.73547161 0.18731992 31.59760094 125 125 125
-1.75615263 0.19869334 31.73111534 186 186 186
-2.18130279 0.24650435 31.90627480 200 200 200
-1.75506425 0.19956595 31.81374931 139 139 139
-1.71018326 0.19514807 31.42751312 116 116 116
-2.21375751 0.25353274 31.82105255 227 227 227
-2.19929457 0.25237411 31.97096062 209 209 209
-2.12826085 0.25551906 31.94943047 188 188 188
-2.17170548 0.26166099 31.76338387 212 212 212
-2.11511230 0.26119176 31.78915405 215 215 215
-1.70025241 0.21338028 31.36916733 113 113 113
-1.76526797 0.22339720 31.87385559 201 201 201
-1.73154128 0.22205308 31.54707146 202 202 202
-1.73508894 0.22344758 31.64749336 133 133 133
-2.05395579 0.26543555 31.78788376 216 216 216
-1.70494735 0.22574198 31.30751801 122 122 122
-2.20476484 0.29047668 31.86956215 225 225 225
-1.97646844 0.26085752 31.80534172 125 125 125
-1.83533311 0.24223375 31.92496490 47 47 47
-2.19798517 0.29168132 32.01889038 196 196 196
-1.73249447 0.23844594 31.77180481 84 84 84
-1.71890152 0.23764728 31.47443962 191 191 191
-2.16896057 0.30217680 31.95154190 192 192 192
-2.19833398 0.30730876 31.79525566 216 216 216
-1.73010659 0.24796720 31.70501328 110 110 110
-1.71606553 0.25418368 31.59694290 91 91 91
-2.13936162 0.31735936 31.77805138 198 198 198
-1.74034262 0.25872838 31.83020020 143 143 143
-1.69582796 0.25417057 31.41755867 101 101 101
-1.78290081 0.26748052 31.94456863 80 80 80
-2.18879771 0.33269086 31.74020004 226 226 226
-2.11112332 0.32293332 31.94849014 159 159 159
-2.00999618 0.30911705 31.78738594 199 199 199
-2.17186332 0.33400351 31.89781380 195 195 195
-2.07836390 0.32213250 31.78856277 215 215 215
-1.93277442 0.30132204 31.83056641 95 95 95
-1.73787010 0.27216169 31.89899826 133 133 133
-1.67347288 0.26448622 31.34361458 35 35 35
-1.69448829 0.26973730 31.53629494 63 63 63
-2.17724514 0.34511414 31.99704933 194 194 194
-2.18895650 0.34797913 31.84024048 227 227 227
-1.70923638 0.27867934 31.65419197 86 86 86
-1.72766507 0.29399684 31.74576187 170 170 170
-1.67906797 0.28695315 31.46684456 65 65 65
-2.18001366 0.37405169 31.78534126 219 219 219
-1.67099738 0.29148942 31.28231430 67 67 67
-2.14803767 0.37333640 31.95075226 192 192 192
-1.96123564 0.34549138 31.79600334 167 167 167
-1.81086850 0.31900978 31.92438698 58 58 58
-2.11147833 0.37441906 31.78560066 199 199 199
-1.70900905 0.30488184 31.80424118 74 74 74
-2.03464794 0.36549085 31.78846169 163 163 163
-1.66339958 0.30044118 31.39253998 52 52 52
-2.17406297 0.39305022 31.88093376 227 227 227
-1.68300343 0.30583534 31.59354401 47 47 47
-1.69147646 0.31472844 31.70063210 67 67 67
-1.71947682 0.32059720 31.86320877 126 126 126
-2.15842938 0.40261751 32.00842667 187 187 187
-2.08930516 0.39066583 31.94730568 181 181 181
-1.90723228 0.35847962 31.83391953 98 98 98
-1.75474250 0.33225831 31.94525337 83 83 83
-2.16666746 0.41192690 31.73856926 218 218 218
-1.66646242 0.32119218 31.51771736 61 61 61
-1.64690948 0.31964728 31.33522797 58 58 58
-2.16666508 0.41839620 31.82555008 225 225 225
-2.12567520 0.42325500 31.90919685 191 191 191
-1.67253828 0.33602014 31.64595032 53 53 53
-1.69176781 0.34219080 31.75791168 89 89 89
-2.06758428 0.41773549 31.78951263 204 204 204
-1.98445284 0.40172616 31.78809357 174 174 174
-1.64815068 0.33575687 31.44561768 43 43 43
-1.64057815 0.33776665 31.25355721 50 50 50
-2.14153528 0.44333735 31.96564102 226 226 226
-2.11844063 0.44545475 31.76075172 178 178 178
-1.68190753 0.35512957 31.82670403 58 58 58
-1.72615886 0.36695060 31.90344238 173 173 173
-1.65113449 0.35359231 31.57106972 47 47 47
-1.92056477 0.41097140 31.80221176 125 125 125
-2.15183163 0.46045911 31.86787415 232 232 232
-1.63158643 0.35315761 31.38740730 45 45 45
-2.08126068 0.45127696 31.95273018 177 177 177
-1.65663862 0.36517000 31.69991302 34 34 34
-2.14425468 0.47467178 31.80813789 218 218 218
-1.61155415 0.35928032 31.30335426 28 28 28
-1.63137746 0.36808011 31.49882698 39 39 39
-2.01792097 0.45387629 31.78922272 212 212 212
-1.66935933 0.38347673 31.88009071 77 77 77
-2.10708737 0.48333669 31.90342712 203 203 203
-1.86535215 0.43205130 31.83522034 60 60 60
-1.63726139 0.38157105 31.62397194 42 42 42
-1.65141594 0.38609803 31.77305031 38 38 38
-2.07302260 0.48534212 31.78033066 202 202 202
-1.95592487 0.45930690 31.78793907 188 188 188
-2.13080192 0.50080889 31.73703575 228 228 228
-2.11857486 0.49787581 31.98363495 197 197 197
-1.71106386 0.40377474 31.95014954 55 55 55
-1.61117542 0.38564855 31.44245720 53 53 53
-1.59852898 0.38650218 31.24458504 77 77 77
-2.12613511 0.51444620 31.85377693 225 225 225
-1.59350884 0.38942286 31.35449982 29 29 29
-2.04181790 0.49822587 31.95063210 214 214 214
-1.61130273 0.39735258 31.55437279 29 29 29
-1.89382732 0.47140869 31.79551125 169 169 169
-2.11810732 0.52801895 31.79284286 223 223 223
-1.64893484 0.41256624 31.82861519 97 97 97
-1.62107146 0.40955186 31.67610931 51 51 51
-2.01996350 0.51562864 31.79003906 210 210 210
-1.57083368 0.40528169 31.29890633 36 36 36
-2.07522106 0.53625023 31.90630531 184 184 184
-1.58994162 0.41389516 31.49862480 41 41 41
-1.61518598 0.42014953 31.73661995 14 14 14
-1.68290639 0.43759185 31.90703201 177 177 177
-2.09533215 0.55103391 31.74007988 215 215 215
-2.09056568 0.54968703 31.96634865 218 218 218
-1.59293926 0.42225036 31.61052513 20 20 20
-1.57222569 0.41877052 31.40651703 36 36 36
-1.82391572 0.48402926 31.83939743 52 52 52
-1.95837665 0.52089196 31.78858185 185 185 185
-1.62394261 0.43570426 31.87978935 98 98 98
-2.09764886 0.56606323 31.83681107 225 225 225
-1.55146682 0.42595917 31.24201965 90 90 90
-2.01114774 0.55142516 31.95126915 189 189 189
-1.59975660 0.44213197 31.79199409 29 29 29
-1.54887962 0.43274856 31.34959412 33 33 33
-1.56619835 0.43947083 31.55750275 21 21 21
-2.04209065 0.57180506 31.76718903 192 192 192
-1.89791667 0.53239381 31.78837013 213 213 213
-1.65805376 0.46528074 31.95605469 77 77 77
-1.57444394 0.44742298 31.66339493 28 28 28
-1.55078781 0.44316375 31.46090126 25 25 25
-2.06975675 0.59633285 31.88317108 212 212 212
-1.98442352 0.57669759 31.78956604 210 210 210
-2.05289006 0.59634966 31.95181656 206 206 206
-1.52201247 0.44577581 31.29527855 40 40 40
-1.83210826 0.53621030 31.80442238 154 154 154
-1.56917477 0.46084383 31.73594856 20 20 20
-1.58052588 0.46582079 31.84543037 31 31 31
-2.06874847 0.61107224 31.80644798 220 220 220
-1.52307487 0.45638436 31.40601730 31 31 31
-1.54566157 0.46284384 31.61111832 22 22 22
-1.62944782 0.49038407 31.90778732 180 180 180
-2.06116486 0.62005997 31.73454094 223 223 223
-1.52817416 0.46511975 31.51552963 29 29 29
-1.97616684 0.60187238 31.95049858 188 188 188
-1.49632108 0.46016532 31.23786926 4 4 4
-1.92387199 0.58802164 31.78893089 212 212 212
-1.75920534 0.54291856 31.85240555 70 70 70
-1.55177617 0.48034057 31.79247856 20 20 20
-1.49124181 0.46437335 31.34507179 16 16 16
-2.01952720 0.62471741 31.90469170 185 185 185
-1.56449378 0.48979881 31.89968491 118 118 118
-2.00550723 0.63080871 31.76319122 206 206 206
-1.86242211 0.58697373 31.78805161 203 203 203
-1.52832377 0.48320922 31.68428802 17 17 17
-2.04605532 0.64463490 31.85248947 223 223 223
-1.49970603 0.47719088 31.45974922 28 28 28
-1.60733056 0.50971496 31.96251106 48 48 48
-1.50634694 0.48498172 31.56925964 27 27 27
-1.46430528 0.47375411 31.28858948 15 15 15
-1.78812206 0.58101523 31.80456161 125 125 125
-1.52910554 0.50320029 31.84487152 29 29 29
-1.46571410 0.48427442 31.39715767 21 21 21
-1.51978195 0.50154495 31.74326324 52 52 52
-1.95103133 0.64309895 31.78968430 220 220 220
-1.49698758 0.49719971 31.62861633 51 51 51
-2.02288699 0.67418575 31.80317307 229 229 229
-1.47319293 0.49475157 31.51805305 14 14 14
-1.97090995 0.66003388 31.91800117 185 185 185
-2.01408005 0.68331432 31.73201561 220 220 220
-1.88969469 0.64205444 31.78929138 220 220 220
-2.00844407 0.68790847 31.87649155 225 225 225
-1.43792248 0.49744192 31.34324074 37 37 37
-1.44161403 0.49922141 31.45187378 0 0 0
-1.56397486 0.54172540 31.93314934 116 116 116
-1.47683251 0.51282185 31.69989204 26 26 26
-1.73362434 0.60070592 31.82664108 113 113 113
-1.50634873 0.52303690 31.89833069 58 58 58
-1.82057452 0.63198638 31.78786850 218 218 218
-1.49555576 0.52102000 31.79652405 55 55 55
-1.45060885 0.50999612 31.57555199 13 13 13
-1.66468740 0.58949041 31.88224983 55 55 55
-1.95812356 0.69770819 31.75749207 195 195 195
-1.40785933 0.50635785 31.39800262 12 12 12
-1.44402337 0.52209699 31.64687347 26 26 26
-1.98661160 0.71787030 31.82719231 224 224 224
-1.45178175 0.52847934 31.75369072 7 7 7
-1.41596687 0.51656556 31.52123642 6 6 6
-1.75972974 0.63995510 31.78672028 209 209 209
-1.92368495 0.70078748 31.92537308 187 187 187
-1.46986198 0.53843731 31.85007477 73 73 73
-1.90309370 0.70239264 31.78844833 217 217 217
-1.37867475 0.51596683 31.34422874 0 0 0
-1.95885408 0.73008788 31.88359833 212 212 212
-1.38552177 0.52020293 31.46722984 5 5 5
-1.84300280 0.68905425 31.78874588 203 203 203
-1.51082897 0.56853282 31.94982719 102 102 102
-1.41743767 0.53539616 31.70069695 0 0 0
-1.67836702 0.63259774 31.83424377 98 98 98
-1.39588714 0.52935874 31.59775162 0 0 0
-1.42600834 0.54421747 31.80747986 12 12 12
-1.34658241 0.52008402 31.39657211 0 0 0
-1.95482421 0.75196445 31.78732681 216 216 216
-1.43627083 0.55403495 31.89921188 103 103 103
-1.36003351 0.53277892 31.54090691 2 2 2
-1.70412803 0.66636735 31.78770447 189 189 189
-1.78195238 0.69714820 31.78812218 198 198 198
-1.94247866 0.76243496 31.72802925 213 213 213
-1.39189041 0.54901469 31.75597572 13 13 13
-1.37735271 0.54488289 31.65489769 6 6 6
-1.90389490 0.75494337 31.90192223 198 198 198
-1.32511246 0.53099996 31.46557236 0 0 0
-1.93668222 0.77079374 31.84282112 216 216 216
-1.88949835 0.75755239 31.76116753 198 198 198
-1.39237714 0.56085575 31.85688782 32 32 32
-1.33506227 0.54368782 31.60931587 0 0 0
-1.45601785 0.59485209 31.94095612 87 87 87
-1.83561063 0.74996084 31.78987312 217 217 217
-1.61749244 0.66157180 31.84029007 70 70 70
-1.35126960 0.55507618 31.70962334 18 18 18
-1.28290439 0.53285545 31.42082596 0 0 0
-1.35657418 0.56155694 31.80657959 2 2 2
-1.29785597 0.53932214 31.52010345 6 6 6
-1.31378996 0.54710299 31.35210228 5 5 5
-1.72649086 0.72344959 31.78817558 218 218 218
-1.64705205 0.69051909 31.79293060 182 182 182
-1.30820370 0.55407572 31.66351700 62 62 62
-1.90284717 0.80210871 31.80166435 206 206 206
-1.34977984 0.57338607 31.89961243 105 105 105
-1.25515759 0.53568804 31.47590065 0 0 0
-1.89640343 0.80629969 31.72444534 215 215 215
-1.27923262 0.54733044 31.58372307 1 1 1
-1.89440310 0.80741465 31.86876297 219 219 219
-1.31713986 0.56540173 31.75960350 8 8 8
-1.77450740 0.76169145 31.78896332 198 198 198
-1.40229678 0.60466158 31.90598679 160 160 160
-1.23867011 0.53959090 31.53634834 0 0 0
-1.31376994 0.57426000 31.84926796 69 69 69
-1.27441883 0.55971330 31.71531296 2 2 2
-1.83906269 0.80413139 31.75718880 195 195 195
-1.25044549 0.55148268 31.64293480 3 3 3
-1.19469559 0.52895004 31.48439407 54 54 54
-1.83948112 0.80937481 31.90070152 193 193 193
-1.58206201 0.70235372 31.81122780 148 148 148
-1.27359378 0.56857502 31.80308723 10 10 10
-1.21092594 0.54251754 31.59135246 62 62 62
-1.66995370 0.74768764 31.78877640 210 210 210
-1.17259777 0.53050947 31.54459953 0 0 0
-1.85912693 0.83793706 31.82893181 218 218 218
-1.27828074 0.57899141 31.89929199 114 114 114
-1.21570158 0.55339181 31.69754028 22 22 22
-1.22866058 0.56311017 31.76135445 0 0 0
-1.18019974 0.54181767 31.64509010 70 70 70
-1.52100098 0.69580626 31.84562683 49 49 49
-1.12715328 0.51906878 31.59104347 0 0 0
-1.71808827 0.78575861 31.78892136 180 180 180
-1.23673880 0.57237637 31.85433197 27 27 27
-1.09832048 0.51115924 31.65221786 0 0 0
-1.77679956 0.82271796 31.77728081 210 210 210
-1.83792663 0.85371137 31.72072983 218 218 218
-1.15265536 0.54084772 31.69998932 94 94 94
-1.33157718 0.62266606 31.93121338 90 90 90
-1.60823333 0.75285202 31.78777313 216 216 216
-1.06186986 0.50091678 31.72334290 0 0 0
-1.18758392 0.56062526 31.80713463 82 82 82
-1.82789016 0.86113369 31.78092384 208 208 208
-1.81853712 0.85896772 31.87128448 198 198 198
-1.02049255 0.48656049 31.80285645 0 0 0
-0.87136739 0.41597846 31.95070267 0 0 0
-1.14631808 0.54615480 31.76322365 26 26 26
-0.97668886 0.46683368 31.87811470 0 0 0
-0.93608743 0.44781199 31.94621086 0 0 0
-1.19330275 0.56988335 31.89789009 73 73 73
-1.52859366 0.72935301 31.79434204 150 150 150
-0.90362304 0.43428767 31.89279366 0 0 0
-1.08905900 0.52574676 31.77577209 70 70 70
-1.12979376 0.54658526 31.82252693 49 49 49
-1.46129417 0.71091855 31.84505653 83 83 83
-1.06919992 0.52260262 31.83374405 76 76 76
-1.66131985 0.80898923 31.78944969 165 165 165
